<?xml version="1.0"?>
<opencv_storage>
<DepthMat type_id="opencv-matrix">
  <rows>43</rows>
  <cols>512</cols>
  <dt>w</dt>
  <data>
    0 0 0 0 0 0 0 0 0 0 0 0 0 0 0 0 0 0 0 0 0 0 0 0 0 0 0 0 0 0 0 0 0 4620 4620 4620 4620 4620 4620 4620 4620 4587 4587 4587 4587 4587 4587 4620 4620 4620 4620 4620 4620 4620 4620 4620 4620 4620 4587 4587 4587 4553 4553 4553 4553 4587 4587 4587 4587 4587 4620 4620 4620 4655 4655 4655 4689 4689 4689 4689 4689 4689 4655 4655 4655 4655 4655 4689 4689 4689 4689 4689 4689 4689 4725 4725 4725 4760 4760 4760 4760 4760 0 0 0 4760 4760 4760 4760 4760 0 0 0 0 0 4834 4834 4834 4834 4834 4834 4834 4871 4871 4871 4871 4909 4909 4948 4948 4948 4909 4909 4909 4871 4909 4909 4909 4909 4909 4871 0 0 5151 5151 5151 5109 5109 5109 5109 5109 5109 5151 5151 5151 5193 5193 5193 5193 5193 5193 5193 5193 5193 5193 5193 5193 5193 5193 5193 5193 5193 5193 5280 5325 5371 5417 5417 5417 5464 5464 5512 5512 5464 5464 5417 5417 5417 5417 5371 5371 5371 5371 5371 5417 5417 5417 5464 5464 5464 5464 5464 5464 5512 5512 5561 5561 5561 5610 5610 5610 5610 5661 5661 5661 5661 5661 5661 5661 5661 5661 5661 5661 5661 5661 5713 5661 5610 5610 5561 5464 5464 5464 5464 5464 5464 5464 5464 5512 5512 5512 5512 5512 5561 5873 5873 5873 5873 5873 5873 5873 5873 5873 5873 5818 5873 5873 5873 5818 5818 5818 5873 5873 5928 5928 5928 5928 5873 5873 5818 5818 5765 5765 5713 5661 5610 5610 5713 5818 5873 5928 5928 5985 5985 5985 5985 5985 5985 5985 5985 5985 5985 5928 5873 5873 5818 5818 5818 5818 5873 5873 5928 5928 5985 6042 6101 6101 6101 6101 6101 6101 6161 6161 6161 6161 6161 6161 6101 5985 5873 5818 5818 5873 5873 5928 5928 5985 6042 6042 6042 5985 5928 5928 5928 5928 5928 5985 5985 5985 5985 5985 6101 0 0 0 0 0 0 0 0 0 0 6161 6161 6161 6161 6161 6161 6161 6161 6161 6161 6161 6161 6161 6161 6161 6161 6101 6161 6222 6284 6478 6546 6685 6830 6905 6905 6905 6905 6905 6905 6905 6830 6757 6546 6478 6478 6478 6478 6546 6615 6615 6615 6546 6546 6478 6478 6478 6757 6757 0 6161 6222 6222 6222 6222 6222 6284 6284 6284 6284 6284 6284 6284 6284 6284 6222 6222 6222 6222 6222 6284 6347 6284 6284 6284 6222 6222 6222 6222 6222 6161 6222 6222 6284 6347 6412 6615 6830 7223 7481 7663 7663 7663 7663 7663 7663 7571 7571 0 0 7571 7571 7571 7571 7393 7223 7223 7061 6905 6757 6615 6478 6615 6685 6685 6757 6830 6685 6615 6546 6478 6478 6412 6284 6284 6347 6412 6412 6546 6546 6546 6546 6546 6546 6546 6478 0 0 7223 6757 6615 6546 6478 6412 6478 6615 6685 6830 7061 7307 7481 8056 7061 6546 6347 6347 6284 6347 6412 6546
    0 0 0 0 0 0 0 0 0 0 0 0 0 0 0 0 0 0 0 0 0 0 0 0 0 0 0 0 0 0 0 0 0 4620 4620 4620 4620 4620 4620 4620 4587 4587 4587 4587 4587 4587 4587 4587 4620 4620 4620 4620 4620 4620 4620 4620 4620 4587 4587 4587 4553 4553 4553 4553 4553 4553 4587 4587 4587 4587 4620 4620 4620 4620 4655 4655 4689 4689 4689 4689 4689 4689 4655 4655 4655 4655 4655 4655 4655 4689 4689 4689 4689 4689 4725 4725 4760 4760 4760 4760 4760 4760 0 0 4760 4760 4760 4760 4760 4760 0 0 0 4834 4834 4834 4834 4834 4834 4834 4834 4834 4871 4871 4871 4871 4909 4909 4909 4909 4909 4909 4909 4909 4909 4909 4909 4909 4909 4909 4871 0 5151 5151 5151 5151 5151 5109 5109 5109 5109 5109 5109 5151 5151 5151 5151 5193 5193 5193 5193 5193 5193 5193 5193 5193 5193 5193 5193 5193 5193 5193 5193 5236 5280 5325 5325 5371 5371 5417 5417 5464 5464 5464 5417 5417 5417 5417 5417 5417 5371 5371 5371 5417 5417 5417 5417 5464 5417 5417 5417 5417 5464 5464 5512 5512 5561 5561 5561 5561 5610 5610 5661 5661 5661 5661 5661 5610 5610 5610 5610 5610 5610 5610 5661 5661 5610 5610 5561 5512 5512 5464 5464 5464 5464 5464 5464 5464 5464 5512 5512 5512 5512 5512 5765 0 0 0 0 0 0 0 5713 5765 5765 5818 5818 5818 5818 5818 5818 5818 5818 5873 5873 5873 5873 5873 5818 5818 5765 5765 5713 5713 5661 5610 5610 5661 5713 5765 5818 5873 5928 5985 5985 5985 5985 5985 5985 5985 5985 5928 5873 5873 5818 5818 5765 5765 5765 5765 5765 5818 5873 5928 6042 6101 6101 6101 6101 6101 6101 6161 6161 6161 6161 6161 6161 6042 5928 5818 5818 5818 5818 5873 5928 5928 5928 5985 6042 5985 5928 5873 5873 5818 5873 5873 5928 5928 5928 5873 5873 0 0 0 0 0 0 0 0 0 0 0 6161 6161 6161 6161 6161 6161 6161 6161 6161 6161 6161 6161 6161 6161 6101 6101 6101 6161 6284 6347 6546 6615 6685 6757 6905 6905 6905 6905 6905 6905 6830 6830 6757 6615 6546 6546 6546 6546 6546 6615 6615 6615 6615 6615 6615 6615 6615 6830 6830 6830 6161 6222 6222 6222 6222 6222 6222 6284 6284 6284 6284 6284 6284 6284 6284 6222 6222 6222 6222 6222 6284 6347 6284 6284 6284 6222 6222 6161 6161 6161 6161 6222 6284 6347 6347 6412 6546 6757 7061 7481 7663 7663 7663 7663 7663 7571 7571 7571 7571 7571 7571 7571 7571 7571 7481 7393 7393 7223 7061 6905 6757 6615 6830 6830 6905 6982 7061 6905 6905 6757 6685 6685 6615 6546 6478 6478 6478 6478 6546 6615 6615 6615 6615 6615 6685 6478 0 0 8161 7481 7307 7141 7061 6905 6905 6905 6982 7141 7307 7481 7758 8161 7481 6685 6284 6161 6161 6222 6347 6546
    0 0 0 0 0 0 0 0 0 0 0 0 0 0 0 0 0 0 0 0 0 0 0 0 0 0 0 0 0 0 0 0 0 4620 4620 4620 4620 4620 4620 4587 4587 4553 4553 4587 4587 4587 4587 4587 4587 4587 4587 4587 4587 4587 4587 4587 4587 4587 4587 4553 4553 4553 4553 4553 4553 4553 4587 4587 4587 4587 4620 4620 4620 4620 4620 4655 4655 4655 4689 4689 4689 4655 4655 4655 4655 4655 4655 4655 4655 4655 4655 4689 4689 4689 4725 4725 4760 4760 4760 4760 4797 4797 4797 4760 4760 4760 4760 4760 4760 4797 4871 4871 4871 4871 4834 4834 4834 4834 4834 4871 4871 4871 4871 4871 4871 4871 4909 4909 4909 4909 4909 4909 4909 4909 4909 4909 4909 4909 4909 4909 4871 0 5151 5151 5151 5151 5151 5151 5109 5109 5109 5109 5109 5151 5151 5151 5151 5193 5193 5193 5193 5193 5193 5193 5193 5193 5193 5193 5193 5193 5193 5193 5193 5193 5193 5236 5236 5280 5325 5325 5371 5417 5417 5417 5417 5417 5417 5417 5417 5417 5417 5371 5417 5417 5417 5417 5417 5417 5417 5417 5417 5417 5417 5417 5464 5464 5512 5561 5561 5610 5610 5661 5661 5661 5661 5661 5661 5610 5610 5561 5561 5561 5610 5610 5610 5661 5610 5610 5561 5512 5512 5464 5464 5417 5417 5464 5464 5464 5464 5512 5512 5512 5512 5561 5818 5873 5873 5873 5873 5873 5873 5873 5713 5713 5713 5765 5765 5765 5765 5765 5765 5765 5818 5818 5818 5818 5818 5818 5818 5818 5765 5765 5713 5713 5661 5610 5610 5610 5661 5661 5765 5818 5873 5928 5985 5985 5985 5928 5928 5873 5873 5873 5818 5818 5818 5765 5765 5713 5713 5713 5713 5765 5818 5873 5985 6101 6042 5985 5985 5985 5985 6042 6161 6161 6161 6161 6101 5985 5873 5818 5818 5818 5818 5873 5873 5873 5928 5928 5985 5985 5928 5818 5765 5765 5765 5818 5873 5873 5818 5765 5661 0 0 0 0 0 0 0 0 0 0 0 6161 6161 6161 6161 6161 6101 6101 6101 6101 6161 6161 6101 6101 6101 6161 6161 6161 6284 6412 6478 6615 6685 6757 6757 6830 6905 6905 6905 6905 6905 6830 6830 6757 6685 6615 6615 6615 6546 6546 6615 6615 6685 6685 6757 6757 6757 6757 6830 6830 6905 6685 6347 6222 6222 6222 6222 6222 6222 6284 6284 6284 6284 6284 6284 6284 6222 6222 6222 6222 6222 6284 6347 6284 6284 6284 6222 6222 6222 6161 6161 6161 6284 6412 6546 6546 6546 6615 6685 7061 7393 7663 7663 7663 7663 7571 7571 7571 7571 7571 7571 7571 7571 7571 7571 7481 7481 7481 7307 7223 7141 7061 6905 7141 7223 7393 7393 7481 7307 7223 7061 6982 6982 6982 6905 6830 6830 6757 6757 6905 6982 6982 6905 6830 6830 6830 6478 0 0 0 8056 8056 7758 7663 7481 7393 7307 7307 7393 7481 7663 7855 8161 7758 7061 6615 6412 6347 6412 6546 6830
    0 0 0 0 0 0 0 0 0 0 0 0 0 0 0 0 0 0 0 0 0 0 0 0 0 0 0 0 0 0 0 0 0 4620 4620 4620 4620 4620 4587 4587 4553 4553 4553 4553 4587 4587 4587 4587 4587 4587 4587 4587 4587 4587 4587 4587 4553 4553 4553 4553 4553 4553 4553 4553 4553 4553 4553 4587 4587 4587 4587 4587 4620 4620 4620 4620 4655 4655 4655 4655 4655 4655 4655 4655 4655 4655 4655 4655 4655 4655 4655 4655 4689 4689 4725 4760 4760 4797 4797 4797 4797 4760 4760 4760 4760 4760 4797 4797 4797 4834 4871 4871 4871 4871 4834 4834 4834 4834 4834 4871 4871 4871 4871 4871 4871 4871 4909 4909 4909 4909 4909 4909 4909 4909 4909 4948 4948 4948 4948 4948 4871 5151 5151 5151 5151 5151 5151 5151 5151 5109 5109 5109 5109 5151 5151 5151 5151 5193 5193 5193 5193 5193 5193 5193 5193 5193 5193 5193 5193 5193 5193 5193 5193 5193 5193 5193 5236 5236 5280 5325 5371 5371 5417 5417 5417 5417 5417 5417 5417 5417 5417 5417 5417 5417 5417 5417 5417 5417 5417 5417 5371 5371 5417 5417 5417 5464 5512 5561 5610 5610 5661 5661 5713 5713 5713 5713 5661 5610 5610 5561 5561 5561 5610 5661 5661 5661 5661 5610 5561 5512 5464 5464 5464 5417 5417 5417 5464 5464 5464 5512 5512 5561 5561 5610 5818 5873 5873 5873 5873 5873 5873 5765 5661 5661 5661 5713 5713 5765 5765 5765 5765 5765 5818 5818 5818 5818 5818 5818 5818 5765 5765 5765 5713 5713 5661 5610 5610 5610 5610 5610 5713 5765 5818 5928 5985 5928 5873 5873 5818 5818 5818 5818 5818 5818 5765 5765 5765 5713 5713 5713 5713 5713 5765 5765 5873 6042 5873 5713 5713 5713 5713 5713 0 0 0 0 5985 5928 5818 5818 5818 5818 5818 5873 5873 5873 5928 5928 5928 5928 5873 5818 5765 5661 5713 5713 5765 5765 5765 5661 5661 0 0 0 0 0 0 0 0 0 0 0 6161 6161 6161 6161 6161 6101 6101 6101 6101 6101 6101 6101 6101 6101 6161 6161 6284 6412 6615 6685 6685 6757 6830 6830 6830 6905 6905 6905 6905 6905 6830 6830 6830 6757 6757 6685 6685 6685 6685 6685 6685 6757 6757 6757 6830 6830 6830 6830 6830 6905 6685 6347 6161 6161 6222 6222 6222 6222 6284 6284 6284 6284 6284 6284 6284 6284 6284 6284 6284 6222 6284 6347 6284 6284 6284 6284 6284 6284 6284 6284 6284 6478 6685 6830 6830 6757 6830 6905 7141 7481 7663 7663 7663 7663 7571 7571 7571 7571 7571 7571 7571 7571 7571 7571 7481 7481 7481 7481 7393 7481 7663 7758 7758 7758 7758 7758 7758 7571 7481 7307 7307 7307 7393 7307 7393 7307 7307 7223 7307 7393 7393 7223 7141 7141 7061 6478 0 0 7855 7954 7954 8056 8056 7954 7855 7758 7663 7758 7758 7855 7954 8161 7954 7393 6905 6615 6546 6615 6757 6982
    0 0 0 0 0 0 0 0 0 0 0 0 0 0 0 0 0 0 0 0 0 0 0 0 0 0 0 0 0 0 0 0 0 4620 4655 4620 4620 4620 4587 4553 4553 4553 4553 4553 4587 4587 4587 4587 4587 4587 4587 4587 4587 4587 4553 4553 4553 4553 4553 4553 4553 4553 4521 4553 4553 4553 4553 4587 4587 4587 4587 4587 4587 4620 4620 4620 4620 4620 4655 4655 4655 4655 4655 4655 4655 4655 4655 4655 4655 4655 4655 4655 4689 4689 4725 4760 4797 4797 4797 4797 4797 4760 4760 4760 4760 4760 4797 4797 4797 4834 4871 4871 4871 4871 4834 4834 4871 4871 4871 4871 4871 4871 4871 4909 4909 4909 4909 4909 4909 4909 4909 4909 4909 4909 4909 4948 4948 4987 4987 5027 5067 5109 5151 5151 5151 5151 5151 5151 5151 5151 5151 5151 5151 5151 5151 5151 5151 5151 5193 5193 5193 5193 5193 5193 5193 5193 5193 5193 5193 5193 5193 5193 5193 5193 5193 5193 5193 5236 5280 5325 5371 5417 5417 5417 5417 5417 5464 5464 5464 5464 5417 5417 5417 5417 5417 5417 5417 5417 5417 5371 5371 5371 5371 5371 5417 5417 5464 5561 5610 5661 5713 5713 5765 5713 5713 5713 5661 5610 5610 5561 5610 5610 5661 5661 5713 5713 5661 5610 5561 5512 5464 5464 5417 5417 5417 5417 5464 5464 5464 5512 5512 5561 5561 5610 5873 5928 5928 5928 5928 5928 5873 5765 5610 5610 5561 5610 5661 5765 5765 5765 5765 5765 5818 5818 5818 5818 5818 5818 5818 5765 5765 5713 5713 5661 5610 5610 5610 5610 5610 5610 5661 5661 5713 5818 5985 5818 5818 5818 5818 5818 5818 5818 5818 5818 5818 5765 5765 5765 5765 5713 5713 5713 5713 5713 5818 5985 0 0 0 0 0 0 0 0 0 0 5985 5873 5818 5818 5818 5818 5818 5873 5873 5873 5928 5928 5928 5928 5928 5873 5818 5713 5610 5610 5661 5661 5661 5661 5661 0 0 0 0 0 0 0 0 0 0 6546 6546 6546 6412 6347 6222 6101 6101 6101 6101 6101 6101 6101 6101 6101 6161 6284 6347 6546 6757 6830 6830 6830 6830 6830 6830 6905 6905 6905 6905 6905 6830 6830 6830 6830 6830 6757 6757 6757 6757 6757 6757 6757 6757 6830 6830 6830 6830 6830 6830 6905 6905 6546 6161 6161 6161 6161 6161 6161 0 0 0 0 6347 6284 6284 6284 6284 6284 6284 6284 0 0 6284 6284 6347 6412 6412 6412 6412 6347 6478 6757 7061 7223 7223 7141 7141 7141 7393 7571 7571 7663 7663 7663 7571 7571 7571 7571 7571 7571 7571 7571 7571 7571 7571 7571 7571 7571 7571 7663 7663 7758 7758 7758 7758 7758 7758 7663 7663 7571 7571 7571 7663 7758 7855 7758 7663 7663 7571 7663 7663 7481 7481 7393 7223 6478 0 0 7855 7954 7954 7954 7954 8056 8056 8056 8056 8056 8056 8056 8056 8161 7954 7663 7307 7061 6982 6982 7061 7223
    0 0 0 0 0 0 0 0 0 0 0 0 0 0 0 0 0 0 0 0 0 0 0 0 0 0 0 0 0 0 0 0 0 4655 4655 4620 4620 4620 4587 4553 4553 4553 4553 4587 4587 4587 4587 4587 4587 4587 4587 4587 4553 4553 4553 4553 4553 4553 4553 4553 4553 4521 4521 4553 4553 4553 4553 4587 4587 4587 4587 4587 4587 4587 4620 4620 4620 4620 4620 4620 4655 4655 4655 4655 4655 4655 4655 4655 4655 4655 4655 4655 4655 4689 4725 4760 4797 4797 4797 4797 4760 4760 4760 4760 4760 4760 4797 4797 4834 4871 4871 4871 4871 4871 4834 4834 4871 4909 4909 4909 4948 4909 4909 4909 4909 4909 4909 4909 4909 4909 4871 4871 4871 4909 4909 4948 4987 4987 5027 5067 5109 5109 5151 5151 5151 5151 5151 5151 5151 5151 5151 5151 5151 5151 5151 5151 5151 5151 5193 5193 5193 5193 5193 5151 5193 5193 5193 5193 5193 5193 5193 5193 5193 5193 5236 5236 5236 5280 5325 5325 5371 5417 5417 5417 5417 5417 5464 5464 5464 5464 5464 5417 5417 5417 5417 5417 5417 5417 5371 5371 5371 5371 5371 5371 5371 5417 5464 5610 5713 5765 5765 5765 5765 5765 5765 5765 5713 5661 5661 5610 5661 5661 5713 5713 5765 5765 5713 5661 5512 5464 5464 5464 5417 5417 5417 5417 5464 5464 5464 5464 5512 5512 5561 5610 5873 5928 5928 5928 5928 5928 5818 5713 5610 5561 5512 5561 5610 5765 5765 5818 5818 5818 5818 5818 5818 5818 5818 5818 5818 5765 5765 5765 5713 5661 5610 5610 5610 5610 5610 5610 5610 5610 5610 0 0 5818 5818 5818 5818 5818 5818 5818 5818 5818 5818 5765 5765 5765 5765 5765 5765 5713 5713 5610 0 0 0 0 0 0 0 0 0 0 0 0 0 5873 5873 5873 5873 5873 5873 5873 5873 5928 5928 5928 5985 5985 5985 5928 5928 5765 5561 5610 5661 5661 5661 5661 0 0 0 0 0 0 0 0 0 0 6546 6546 6546 6546 6546 6546 6412 6101 6161 6101 6101 6101 6101 6101 6101 6101 6222 6347 6478 6615 6830 6830 6830 6830 6830 6830 6830 6905 6905 6905 6905 6905 6830 6830 6830 6830 6830 6757 6757 6757 6830 6830 6830 6830 6830 6830 6830 6830 6830 6830 6830 6905 6905 6982 0 0 0 0 0 0 0 0 0 0 6347 6284 6284 6284 6284 6284 6284 6284 0 0 0 0 6615 6615 6615 6615 6546 6546 6757 7061 7393 7481 7481 7481 7481 7481 7571 7571 7571 7571 7663 7663 7571 7571 7571 7571 7571 7571 7571 7571 7571 7571 7571 7571 7571 7571 7571 7663 7663 7758 7758 7758 7758 7758 7758 7663 7663 7663 7663 7758 7855 7954 8056 7954 7954 7855 7758 7758 7758 7758 7758 7758 7758 0 0 0 7855 7954 7954 7954 7954 7954 8056 8056 8056 8056 8056 8056 8056 8056 8161 7954 7855 7663 7571 7481 7571 7663
    0 0 0 0 0 0 0 0 0 0 0 0 0 0 0 0 0 0 0 0 0 0 0 0 0 0 0 0 0 0 0 0 0 4655 4655 4655 4620 4620 4587 4553 4587 4587 4587 4587 4620 4620 4620 4587 4587 4587 4587 4553 4553 4553 4553 4553 4553 4553 4521 4521 4521 4553 4553 4553 4553 4553 4553 4587 4587 4587 4587 4587 4587 4587 4587 4620 4620 4620 4620 4620 4620 4655 4655 4655 4655 4655 4655 4655 4655 4655 4655 4655 4655 4689 4725 4797 4797 4797 4797 4797 4760 4760 4760 4760 4760 4760 4797 4797 4834 4871 4871 4871 4871 4871 4909 4909 4948 4948 4948 4987 4987 4948 4948 4948 4909 4909 4909 4909 4909 4909 4909 4909 4909 4909 4948 4948 4987 5027 5067 5067 5109 5109 5151 5151 5151 5151 5151 5151 5151 5151 5151 5151 5151 5151 5151 5151 5151 5193 5193 5193 5151 5151 5151 5151 5151 5151 5193 5193 5193 5193 5193 5193 5193 5236 5236 5280 5280 5325 5325 5371 5371 5417 5417 5417 5417 5464 5464 5464 5464 5464 5464 5464 5417 5417 5417 5417 5371 5371 5371 5371 5371 5371 5371 5371 5371 5371 5464 5561 5713 5765 5818 5818 5818 5818 5818 5765 5765 5713 5661 5661 5713 5765 5765 5818 5818 5818 5818 5765 5464 5464 5464 5417 5417 5417 5417 5417 5464 5464 5464 5464 5512 5512 5512 5512 5765 5928 5928 5928 5928 5928 5818 5713 5610 5561 5464 5464 5561 5765 5818 5818 5818 5818 5818 5818 5818 5818 5818 5818 5818 5818 5765 5765 5661 5610 5561 5561 5610 5610 5661 5661 5818 5610 0 0 0 5818 5818 5818 5818 5818 5818 5818 5818 5818 5818 5765 5765 5765 5765 5765 5765 5765 5765 0 0 0 0 0 0 0 0 0 0 0 0 0 0 5873 5873 5928 5928 5928 5928 5928 5928 5928 5928 5985 5985 5985 5985 5985 5928 5873 0 0 0 0 0 0 0 0 0 0 0 0 0 0 0 0 6546 6546 6546 6546 6546 6546 6546 6546 6161 6161 6101 6101 6101 6101 6101 6101 6222 6347 6478 6615 6757 6830 6830 6830 6830 6830 6830 6830 6905 6905 6905 6905 6905 6830 6830 6830 6757 6757 6757 6830 6830 6830 6830 6830 6830 6830 6830 6830 6757 6615 6412 6222 5818 5610 5280 5280 5280 5280 5280 5280 0 0 0 0 6347 6347 6347 6347 6347 6284 6284 6284 0 0 0 0 6615 6412 6347 6347 6222 6101 6412 6830 7141 7393 7481 7481 7481 7481 7571 7571 7571 7571 7571 7571 7571 7571 7571 7571 7571 7571 7571 7571 7571 7571 7571 7571 7571 7571 7571 7663 7663 7758 7758 7758 7758 7758 7758 7663 7663 7663 7663 7758 7758 7954 8056 7954 7954 7855 7758 7758 7758 7758 7758 7758 7758 0 0 0 7855 7954 7954 7954 7954 7954 7954 7954 8056 8056 8056 8056 8056 8056 8161 8161 8161 8161 8056 8056 7954 7954
    0 0 0 0 0 0 0 0 0 0 0 0 0 0 0 0 0 0 0 0 0 0 0 0 0 0 0 0 0 0 0 0 0 4655 4655 4655 4655 4655 4620 4587 4587 4587 4620 4620 4620 4620 4620 4587 4587 4587 4553 4553 4553 4553 4553 4553 4553 4553 4553 4553 4553 4553 4553 4553 4553 4553 4553 4587 4587 4587 4587 4587 4587 4587 4587 4587 4587 4620 4620 4620 4620 4620 4620 4655 4655 4655 4655 4655 4655 4655 4655 4655 4655 4689 4725 4797 4797 4797 4760 4760 4760 4760 4760 4760 4760 4760 4797 4797 4834 4871 4871 4871 4871 4871 4987 4987 4987 4987 5027 5027 5027 5027 4987 4987 4948 4948 4909 4909 4909 4909 4909 4909 4909 4909 4948 4987 5067 5067 5067 5109 5109 5109 5151 5151 5151 5151 5151 5151 5151 5151 5151 5151 5151 5151 5151 5151 5151 5193 5193 5151 5151 5151 5151 5151 5151 5151 5151 5151 5193 5193 5193 5193 5236 5280 5280 5325 5325 5371 5371 5371 5371 5417 5417 5417 5417 5464 5464 5464 5464 5464 5464 5464 5417 5417 5371 5371 5371 5371 5371 5371 5371 5371 5371 5371 5371 5371 5417 5512 5610 5661 5713 5765 5713 5713 5713 5713 5713 5713 5713 5765 5818 5818 5818 5873 5818 5765 5713 5610 5464 5464 5464 5417 5417 5417 5417 5464 5464 5464 5464 5464 5464 5464 5464 5464 5610 5713 5765 5765 5818 5818 5765 5661 5610 5561 5464 5417 5464 5610 5713 5765 5818 5818 5818 5818 5873 5873 5873 5818 5765 5765 5713 5661 5610 5561 5561 5561 5610 5610 5661 5765 6161 0 0 0 0 5661 5713 5713 5765 5765 5765 5818 5818 5818 5818 5818 5765 5765 5765 5765 5818 5818 5818 0 0 0 0 0 0 0 0 0 0 0 0 0 0 5873 5873 5928 5928 5928 5928 5928 5928 5928 5985 5985 5985 5985 5985 5985 5928 5873 0 0 0 0 0 0 0 0 0 0 0 0 0 0 0 0 6546 6546 6546 6546 6546 6546 6478 6347 6161 6161 6161 6161 6161 6161 6161 6161 6222 6412 6546 6685 6757 6757 6757 6830 6830 6830 6830 6830 6905 6905 6905 6905 6905 6830 6830 6830 6757 6757 6757 6830 6830 6830 6830 6830 6830 6830 6830 6757 6478 6161 5873 5610 5280 5280 5280 5280 5280 5280 5280 5280 5280 0 0 0 6347 6347 6347 6347 6347 6284 6284 0 0 0 0 0 6284 6161 6101 6042 5985 5818 6042 6412 6685 6905 6982 7061 6982 7141 7307 7481 7571 7571 7571 7571 7571 7571 7571 7571 7571 7571 7571 7571 7571 7571 7571 7571 7571 7571 7571 7663 7663 7758 7758 7758 7758 7758 7758 7663 7663 7663 7663 7663 7758 7855 7954 7954 7954 7954 7855 7758 7758 7663 7758 7663 7663 7571 7571 7571 7758 7855 7954 7954 7954 7954 7954 7954 7954 7954 7954 7954 7954 8056 8056 8161 8161 8161 8161 8056 7954 7954
    0 0 0 0 0 0 0 0 0 0 0 0 0 0 0 0 0 0 0 0 0 0 0 0 0 0 0 0 0 0 0 0 0 4655 4655 4655 4655 4655 4620 4587 4620 4620 4620 4655 4655 4655 4620 4587 4587 4587 4553 4553 4553 4553 4553 4553 4553 4553 4553 4553 4553 4553 4553 4553 4553 4553 4587 4587 4587 4587 4587 4587 4587 4587 4587 4587 4587 4587 4587 4620 4620 4620 4620 4655 4655 4655 4655 4689 4689 4655 4655 4655 4655 4689 4725 4760 4760 4760 4760 4760 4760 4760 4760 4760 4760 4797 4797 4797 4834 4834 4871 4871 4834 4834 5067 5067 5067 5067 5067 5027 5027 5027 5027 4987 4948 4948 4948 4909 4909 4871 4909 4871 4909 4909 4948 4871 5067 5067 5067 5109 5109 5109 5151 5151 5151 5151 5151 5151 5151 5151 5151 5151 5151 5151 5193 5193 5151 5151 5151 5151 5151 5151 5151 5151 5151 5151 5151 5151 5193 5193 5193 5236 5280 5280 5325 5371 5371 5371 5371 5371 5371 5417 5417 5417 5417 5464 5464 5464 5464 5464 5464 5417 5417 5417 5371 5371 5371 5371 5371 5371 5371 5371 5371 5371 5371 5371 5371 5464 5512 5561 5610 5661 5661 5661 5610 5610 5610 5610 5661 5818 5818 5818 5818 5818 5765 5713 5610 5561 5512 5464 5464 5464 5417 5464 5464 5464 5464 5464 5464 5464 5464 5417 5417 5464 5561 5561 5610 5610 5661 5713 5713 5610 5561 5561 5464 5464 5561 5610 5610 5661 5713 5765 5765 5818 5818 5818 5765 5713 5610 5610 5610 5561 5561 5561 5561 5561 5610 5610 5661 5713 6161 0 0 0 0 5561 5610 5661 5661 5661 5713 5765 5818 5818 5818 5818 5818 5818 5818 5818 5818 5818 0 0 0 0 0 0 0 0 0 0 0 0 0 0 0 5873 5873 5928 5928 5928 5985 5985 5985 5985 5985 5985 5985 5985 5985 5985 5985 5873 0 0 0 0 0 0 0 0 0 0 0 0 0 0 0 0 6546 6546 6546 6546 6478 6347 6222 6042 6042 6101 6101 6161 6161 6161 6161 6161 6222 6412 6546 6685 6757 6757 6757 6757 6757 6830 6830 6830 6830 6830 6830 6830 6830 6830 6830 6830 6757 6757 6757 6830 6830 6830 6830 6830 6830 6830 6830 6546 6161 5818 5610 5417 5280 5280 5280 5280 5280 5280 5280 5280 5417 5713 5928 5928 5928 5928 5873 5873 0 0 0 0 0 0 0 0 6284 6161 6042 5873 5818 5610 5713 5985 6222 6478 6615 6685 6757 7141 7307 7481 7571 7571 7571 7571 7571 7571 7571 7571 7571 7571 7571 7571 7571 7571 7571 7571 7571 7571 7571 7571 7663 7663 7061 7307 7223 7393 7571 7663 7663 7663 7663 7663 7571 7571 7481 7571 7663 7663 7758 7855 7855 7393 6905 6685 6757 6757 6685 6685 6982 7393 7663 7758 7954 7954 7954 7954 7954 7954 7954 7954 7954 8056 8056 8161 8161 8161 8161 8056 8056 7954
    0 0 0 0 0 0 0 0 0 0 0 0 0 0 0 0 0 0 0 0 0 0 0 0 0 0 0 0 0 0 0 0 0 4655 4655 4655 4655 4655 4655 4620 4620 4655 4655 4655 4689 4655 4620 4587 4587 4553 4553 4553 4553 4553 4553 4553 4553 4553 4553 4553 4553 4553 4553 4553 4553 4553 4587 4587 4587 4587 4587 4587 4587 4587 4587 4587 4587 4620 4620 4620 4620 4620 4620 4655 4655 4655 4689 4689 4689 4689 4655 4655 4655 4689 4725 4760 4760 4760 4760 4760 4760 4760 4760 4760 4797 4797 4797 4834 4834 4834 4834 4834 4834 4834 5067 5067 5067 5067 5067 5027 5027 5027 5027 4987 4948 4909 4909 4909 4909 4871 4909 4909 4909 4909 4987 0 5067 5067 5067 5109 5109 5109 5151 5151 5151 5151 5151 5151 5151 5151 5151 5151 5193 5193 5193 5193 5193 5193 5151 5151 5151 5151 5151 5151 5151 5151 5193 5193 5193 5193 5236 5236 5280 5325 5371 5371 5371 5417 5371 5371 5371 5417 5417 5417 5417 5464 5464 5464 5464 5464 5464 5417 5417 5417 5371 5371 5371 5371 5371 5371 5371 5371 5371 5371 5371 5371 5371 5417 5464 5512 5561 5561 5561 5561 5561 5561 5512 5512 5610 5818 5818 5818 5818 5818 5713 5610 5561 5512 5512 5512 5464 5464 5464 5464 5464 5464 5464 5464 5464 5464 5464 5417 5464 5464 5512 5512 5512 5512 5561 5561 5561 5561 5561 5561 5512 5561 5561 5610 5610 5661 5661 5713 5765 5765 5765 5765 5713 5661 5610 5610 5610 5561 5561 5561 5561 5561 5610 5610 5661 5765 5985 5873 5873 5873 5873 5765 5661 5661 5661 5661 5713 5765 5818 5818 5818 0 0 0 0 0 0 0 0 0 0 0 0 0 0 0 0 0 0 0 0 0 0 0 5873 5985 5985 5985 5985 5985 5985 5985 5985 6042 6042 6042 6042 6042 5985 0 0 0 0 0 0 0 0 0 0 0 0 0 0 0 0 0 6546 6546 6478 6412 6284 6161 6042 5928 5928 6042 6101 6161 6161 6161 6161 6161 6284 6412 6546 6685 6757 6757 6757 6757 6757 6757 6757 6830 6830 6830 6830 6830 6830 6830 6830 6757 6757 6757 6757 6830 6830 6830 6830 6830 6830 6830 6830 6284 5818 5561 5417 5325 5280 5280 5280 5280 5280 5280 5325 5371 5561 5765 5928 5928 5928 5928 5873 5873 5873 0 0 0 0 6546 6546 6546 6347 6161 5985 5818 5661 5512 5561 5713 5873 6101 6222 6478 6615 6982 7223 7481 7571 7571 7571 7571 7571 7571 7571 7571 7571 7571 7571 7571 7571 7571 7571 7571 7571 7571 7571 7571 7571 6412 6412 6412 6412 6615 7061 7393 7481 7481 7393 7307 7141 7061 7061 7061 7223 7307 7393 7571 7855 6830 6412 6478 6546 6546 6478 6478 6615 6982 7223 7571 7855 7954 7954 7954 7954 7954 7954 7954 7954 7954 8056 8056 8161 8161 7954 7855 7758 7571
    0 0 0 0 0 0 0 0 0 0 0 0 0 0 0 0 0 0 0 0 0 0 0 0 0 0 0 0 0 0 0 0 0 4655 4655 4655 4655 4655 4655 4655 4655 4655 4655 4689 4689 4655 4620 4587 4587 4553 4553 4553 4553 4553 4553 4553 4553 4553 4553 4553 4553 4553 4553 4553 4553 4553 4587 4587 4587 4587 4587 4587 4587 4587 4587 4587 4620 4620 4620 4620 4620 4620 4620 4655 4655 4655 4689 4689 4689 4689 4689 4689 4655 4689 4725 4760 4760 4760 4760 4760 4760 4760 4760 4760 4797 4797 4834 4834 4834 4834 4834 4834 4834 4834 5067 5067 5067 5067 5067 5067 5027 5027 5027 4987 4909 4871 4871 4871 4871 4871 4871 4909 4909 4948 5151 0 5067 5067 5109 5109 5109 5151 5151 5151 5151 5151 5151 5151 5151 5151 5151 5193 5193 5193 5193 5193 5193 5193 5193 5151 5151 5151 5151 5151 5193 5193 5193 5236 5236 5236 5236 5280 5325 5325 5371 5371 5371 5371 5371 5371 5371 5371 5417 5417 5417 5417 5464 5464 5464 5464 5417 5417 5371 5371 5371 5371 5371 5371 5371 5371 5371 5371 5371 5371 5371 5371 5371 5371 5417 5417 5464 5464 5464 5464 5464 5464 5464 5417 5512 5765 5818 5818 5818 5765 5661 5561 5561 5512 5512 5512 5512 5464 5464 5464 5464 5464 5512 5464 5464 5464 5417 5417 5464 5464 5512 5512 5512 5561 5561 5561 5561 5561 5561 5561 5610 5610 5610 5610 5610 5610 5661 5661 5713 5713 5713 5713 5661 5610 5610 5610 5610 5561 5561 5561 5561 5561 5610 5661 5713 5818 5985 5873 5873 5873 5873 5818 5713 5661 5661 5610 5561 5610 0 0 0 0 0 0 0 0 0 0 0 0 0 0 0 0 0 0 0 0 0 0 0 0 0 0 0 6101 6101 6101 6042 6042 6042 6042 6042 6042 6042 0 0 0 0 0 0 0 0 0 0 0 0 0 0 0 0 0 0 0 0 5713 6101 6161 6222 6161 6101 6042 5985 5873 5928 5985 6042 6101 6161 6161 6161 6161 6222 6412 6546 6685 6757 6757 6757 6757 6757 6757 6757 6757 6830 6830 6830 6830 6830 6830 6757 6685 6685 6757 6757 6830 6830 6830 6830 6830 6830 6830 6757 5713 5417 5371 5325 5325 5280 5280 5280 5280 5280 5280 5325 5417 5610 5818 5928 5928 5928 5928 5873 5873 5873 0 0 0 0 6478 6478 6478 6347 6222 5985 5818 5661 5512 5464 5561 5610 5713 5818 6101 6284 6757 6905 7223 7141 7393 7571 7571 7571 7571 7571 7571 7571 7571 7571 7571 7571 7571 7481 7393 7307 7223 7141 7141 6982 6412 6412 6412 6412 6412 6830 7141 7223 7141 7141 7061 6905 6830 6757 6757 6830 6905 6982 7061 6982 6412 6347 6412 6412 6412 6412 6347 6412 6615 6905 7223 7571 7758 7954 7954 7954 7954 7954 7954 7954 7954 8056 8056 8056 8161 7758 7663 7481 7223
    0 0 0 0 0 0 0 0 0 0 0 0 0 0 0 0 0 0 0 0 0 0 0 0 0 0 0 0 0 0 0 0 0 4655 4655 4655 4655 4655 4655 4655 4655 4655 4689 4689 4689 4689 4620 4587 4587 4553 4553 4553 4553 4553 4553 4553 4553 4553 4553 4553 4553 4553 4553 4553 4553 4553 4587 4587 4587 4587 4587 4587 4587 4587 4587 4587 4587 4620 4620 4620 4620 4620 4620 4655 4655 4689 4689 4689 4689 4689 4689 4689 4689 4689 4725 4760 4760 4760 4760 4760 4725 4725 4760 4797 4834 4834 4834 4834 4834 4797 4797 4797 4797 4797 5067 5067 5067 5067 5067 5067 5067 5027 4987 4948 4871 4871 4871 4871 4871 4834 4871 4871 4871 4871 0 0 0 5067 5109 5109 5151 5151 5151 5151 5151 5151 5151 5151 5151 5151 5151 5193 5193 5193 5193 5193 5193 5193 5193 5193 5193 5193 5193 5193 5193 5236 5236 5236 5280 5280 5280 5325 5325 5371 5371 5371 5371 5371 5371 5371 5371 5371 5371 5371 5417 5417 5417 5417 5417 5417 5417 5371 5371 5371 5371 5371 5371 5371 5371 5371 5325 5325 5325 5325 5325 5371 5371 5371 5371 5371 5371 5371 5371 5371 5371 5371 5371 5371 5464 5610 5610 5561 5561 5561 5561 5561 5561 5561 5512 5512 5512 5512 5512 5512 5512 5512 5512 5512 5464 5464 5464 5417 5512 5561 5610 5610 5610 5561 5561 5561 5561 5561 5561 5610 5610 5610 5610 5610 5610 5610 5661 5661 5661 5661 5661 5661 5661 5610 5610 5610 5610 5561 5561 5561 5561 5561 5661 5713 5765 5873 5928 5873 5873 5873 5873 5818 5765 5713 5661 5561 5464 5464 0 0 0 0 0 0 0 0 0 0 0 0 0 0 0 0 0 0 0 0 0 0 0 0 0 0 0 0 0 0 6042 6042 6042 6042 6042 0 0 0 0 0 0 0 0 0 0 0 0 0 0 0 0 0 0 0 0 0 0 5713 5873 5928 5985 5985 5985 5985 5928 5928 5928 5985 6042 6101 6161 6161 6161 6222 6222 6412 6546 6685 6685 6685 6757 6757 6757 6757 6757 6757 6757 6757 6830 6830 6757 6757 6757 0 0 0 0 0 6830 6830 6830 6830 6830 6830 0 5236 5236 5236 5236 5280 5280 5280 5280 5280 5280 5325 5371 5417 5610 5765 5765 5765 5765 5713 5765 5873 5873 0 0 0 0 6412 6412 6412 6347 6284 6161 5985 5765 5610 5464 5464 5371 5417 5464 5713 5818 6347 6478 6615 6546 6830 7223 7571 7571 7571 7571 7571 7571 7571 7571 7571 7481 7307 7141 6982 6830 6757 6757 6685 6546 6412 6412 6412 6412 6412 6615 6905 6905 6905 6905 6757 6685 6615 6546 6546 6546 6615 6546 6615 6412 6347 6347 6412 6412 6412 6347 6347 6284 6412 6546 6830 7141 7481 7663 7855 7954 7954 7954 7954 7954 7954 7954 8056 8056 8161 7758 7663 7393 6982
    0 0 0 0 0 0 0 0 0 0 0 0 0 0 0 0 0 0 0 0 0 0 0 0 0 0 0 0 0 0 0 0 0 4655 4655 4655 4655 4655 4655 4655 4655 4689 4689 4689 4689 4689 4620 4553 4553 4553 4553 4553 4553 4553 4553 4553 4553 4553 4553 4553 4553 4553 4553 4553 4553 4553 4587 4587 4587 4587 4587 4587 4587 4587 4587 4587 4587 4620 4620 4620 4620 4620 4655 4655 4689 4689 4725 4725 4725 4725 4689 4689 4689 4689 4725 4760 4760 4760 4760 4760 4725 0 4834 4834 4834 4834 4834 4834 4834 4797 4797 4797 4797 4797 5067 5067 5067 5067 5067 5067 5067 5027 4948 4909 4834 4834 4834 4834 4834 4834 4834 4834 4834 0 0 0 0 0 5109 5109 5151 5151 5151 5151 5151 5151 5151 5151 5151 5151 5151 5236 5236 5236 5236 5236 5193 5193 5193 5193 5193 5236 5236 5236 5236 5280 5280 5280 5280 5325 5325 5325 5325 5371 5371 5371 5371 5371 5371 5371 5371 5371 5371 5371 5371 5417 5417 5417 5417 5417 5371 5371 5371 5371 5371 5371 5371 5371 5371 5371 5325 5325 5325 5325 5325 5325 5371 5371 5371 5371 5417 5417 5371 5371 5371 5371 5371 5371 5417 5371 5371 5371 5371 5417 5464 5512 5561 5561 5561 5561 5561 5561 5561 5561 5561 5561 5561 5561 5512 5464 5464 5610 5661 5713 5765 5713 5661 5610 5610 5561 5561 5561 5561 5610 5610 5610 5610 5610 5610 5661 5661 5661 5661 5661 5661 5661 5610 5610 5610 5610 5610 5561 5561 5561 5561 5610 5661 5765 5818 5873 5928 5928 5873 5873 5873 5873 5818 5765 5713 5661 5464 5464 0 0 0 0 0 0 0 0 5928 5928 5928 5928 5928 5928 5928 0 0 0 0 0 0 0 0 0 0 0 0 0 0 0 0 0 0 0 0 0 0 0 0 0 0 0 0 0 0 0 0 0 0 0 0 0 0 0 0 0 0 5713 5713 5713 5818 5765 5818 5873 5873 5818 5873 5928 5985 6101 6222 6284 6347 6347 6347 6412 6478 6546 6685 6685 6685 6685 6685 6685 6757 6757 6757 6757 6757 6757 6757 6757 6757 0 0 0 0 0 0 0 0 0 0 0 0 5236 5236 5236 5236 5280 5280 5280 5280 5280 5280 5325 5371 5417 5610 5713 5661 5661 5661 5610 5661 5873 5873 0 0 0 0 6412 6412 6412 6412 6412 6347 6222 6042 5765 5610 5464 5371 5325 5417 5561 5873 6284 6412 6412 6412 6412 6757 7571 7571 7571 7571 7571 7571 7571 7571 7571 7223 6905 6685 6546 6478 6478 6478 6478 6478 6412 6412 6412 6412 6412 6412 6546 6615 6615 6615 6546 6478 6412 6347 6347 6284 6284 6284 6347 6222 6347 6347 6284 6284 6222 6161 6161 6161 6284 6347 6546 6757 7141 7393 7663 7954 7954 7954 7954 7855 7954 7954 8056 8056 8161 7758 7663 7393 6982
    0 0 0 0 0 0 0 0 0 0 0 0 0 0 0 0 0 0 0 0 0 0 0 0 0 0 0 0 0 0 0 0 0 4689 4689 4689 4689 4689 4689 4689 4689 4689 4689 4689 4689 4689 4620 4553 4553 4553 4553 4553 4553 4521 4553 4553 4553 4553 4553 4553 4553 4553 4553 4553 4553 4553 4553 4587 4587 4587 4587 4587 4587 4587 4587 4587 4587 4587 4620 4620 4620 4655 4655 4689 4689 4725 4725 4725 4725 4725 4725 4725 4689 4689 4760 4760 4760 4760 4760 4760 0 4834 4834 4834 4834 4834 4834 4834 4797 4797 4797 4797 4797 4797 5067 5067 5067 5067 5067 5067 5067 5027 4948 4871 4834 4834 4834 4834 4834 4834 4834 4834 0 0 0 0 0 0 0 0 0 0 0 5151 5151 5151 5151 5151 5151 5151 5151 5280 5236 5236 5236 5236 5236 5236 5236 5236 5236 5280 5280 5280 5280 5325 5325 5325 5325 5325 5325 5325 5371 5371 5371 5371 5371 5371 5371 5371 5371 5371 5371 5371 5371 5371 5371 5371 5371 5371 5371 5371 5371 5371 5371 5371 5371 5371 5371 5371 5325 5325 5325 5325 5325 5325 5325 5371 5371 5371 5417 5371 5371 5371 5371 5371 5371 5371 5371 5325 5325 5325 5325 5371 5417 5464 5561 5561 5561 5561 5561 5561 5561 5561 0 0 0 0 5512 5512 5765 5873 5873 5873 5873 5818 5765 5713 5713 5661 5661 5661 5610 5610 5610 5610 5610 5661 5661 5661 5661 5661 5661 5661 5661 5661 5610 5610 5561 5561 5561 5561 5561 5561 5561 5661 5765 5818 5873 5928 5928 5928 5873 5873 5873 5873 5873 5873 5873 5873 0 0 0 0 0 0 0 0 0 5928 5928 5928 5928 5928 5928 5928 5928 0 0 0 0 0 0 0 0 0 0 0 0 0 0 0 0 0 0 0 0 0 0 0 0 0 0 0 0 0 0 0 0 0 0 0 0 0 0 0 0 0 0 5713 5713 5713 5765 5765 5818 5873 5928 5985 6042 6042 6042 6161 6284 6347 6347 6347 6347 6347 6347 6412 6685 6685 6685 6685 6685 6685 6685 6757 6757 6757 6757 6757 6757 6685 6685 0 0 0 0 0 0 0 0 0 0 0 5280 5280 5280 5280 5280 5236 5236 5236 5236 5236 5236 5325 5371 5417 5561 5661 5561 5610 5610 5561 5713 6222 6412 6685 6685 6685 0 6412 6412 6412 6412 6412 6412 6347 6161 5928 5713 5561 5371 5280 5371 5561 5873 6161 6347 6412 6412 6412 6412 7481 7481 7481 7571 7571 7571 7571 7571 7223 6685 6478 6478 6478 6478 6478 6478 6478 6478 6412 6412 6412 6412 6412 6412 6347 6347 6412 6412 6347 6347 6347 6284 6222 6222 6284 6284 6284 6347 6412 6222 6222 6222 6161 6222 6222 6222 6284 6284 6347 6412 6757 7141 7663 7954 7954 7954 7954 7855 7954 7954 7954 8056 8056 7663 7663 7393 6982
    0 0 0 0 0 0 0 0 0 0 0 0 0 0 0 0 0 0 0 0 0 0 0 0 0 0 0 0 0 0 0 0 0 4689 4689 4689 4689 4689 4689 4689 4689 4689 4689 4689 4689 4689 4620 4553 4553 4553 4553 4553 4553 4553 4521 4553 4553 4553 4553 4553 4553 4553 4553 4553 4553 4553 4553 4587 4587 4587 4587 4587 4587 4587 4587 4587 4587 4587 4587 4620 4655 4655 4689 4725 4725 4725 4725 4725 4725 4725 4725 4725 4725 4725 4760 4760 4760 4760 4760 4760 4834 4834 4834 4834 4834 4834 4834 4834 4797 4797 4797 4797 4797 4797 5067 5067 5067 5067 5067 5067 5067 5027 4909 4834 4834 4834 4834 4797 4797 4797 4834 4834 0 0 0 0 0 0 0 0 0 5236 5236 5236 5236 5236 5236 5236 0 0 5325 5280 5280 5280 5280 5280 5280 5280 5280 5280 5280 5325 5325 5325 5325 5325 5325 5325 5325 5371 5371 5371 5371 5371 5325 5325 5325 5325 5371 5371 5371 5371 5371 5371 5371 5371 5371 5371 5371 5371 5371 5371 5371 5371 5371 5371 5371 5371 5371 5371 5325 5325 5325 5325 5325 5325 5325 5325 5371 5371 5417 5371 5371 5371 5371 5371 5371 5371 5371 5371 5325 5325 5325 5325 5371 5464 5561 5561 5561 5561 5561 5561 5561 5561 0 0 0 0 0 0 5985 5985 5985 5985 5928 5928 5873 5818 5765 5765 5765 5713 5713 5713 5713 5713 5713 5713 5713 5713 5713 5661 5661 5661 5661 5661 5610 5561 5561 5561 5561 5561 5561 5561 5661 5765 5873 5928 5928 5928 5928 5928 5873 5873 5873 5873 5873 5873 5873 5873 0 0 0 0 0 0 0 0 0 5985 5985 5985 5985 5985 5985 5985 5985 5985 5985 0 0 0 0 0 0 0 0 0 0 0 0 0 0 0 0 0 0 0 0 0 0 0 0 0 0 0 0 0 0 0 0 0 0 0 0 0 0 0 0 5713 5713 5713 5713 5765 5818 5985 6101 6161 6284 6347 6284 6478 6478 6412 6412 6412 6412 6412 6412 6478 6830 6830 6830 6830 6830 6830 6830 6830 6830 6830 6830 6830 6830 6757 0 0 0 0 0 0 0 0 0 0 0 6982 5765 5464 5371 5325 5280 5280 5280 5280 5280 5280 5280 5325 5325 5371 5512 5713 5610 5661 5661 5713 5985 6546 6757 6757 6757 6757 6757 6347 6347 6347 6412 6412 6412 6412 6284 6101 5873 5661 5371 5280 5371 5561 5765 6101 6284 6412 6412 6412 6412 7481 7481 7481 7481 7481 7481 7481 7393 6905 6757 6685 6685 6685 6685 6615 6546 6546 6478 6412 6412 6412 6412 6412 6412 6347 6347 6412 6412 6347 6347 6284 6222 6222 6222 6284 6284 6347 6412 6546 6222 6222 6222 6222 6222 6222 6222 6222 6222 6222 6222 6347 6757 7481 7954 7954 7954 7954 7855 7954 7954 7954 8056 8056 7855 7855 7758 7571
    0 0 0 0 0 0 0 0 0 0 0 0 0 0 0 0 0 0 0 0 0 0 0 0 0 0 0 0 0 0 0 0 0 4689 4689 4689 4689 4689 4689 4689 4689 4689 4689 4689 4689 4689 4620 4553 4553 4553 4553 4553 4553 4553 4553 4553 4553 4553 4553 4553 4553 4553 4553 4553 4553 4553 4553 4553 4587 4587 4587 4587 4587 4587 4587 4587 4587 4587 4587 4620 4655 4689 4725 4725 4725 4725 4725 4725 4725 4725 4725 4725 4689 4689 4760 4760 4760 4760 4760 4760 4834 4834 4834 4834 4834 4834 4834 4834 4797 4797 4797 4797 4797 4797 5067 5067 5067 5067 5067 5067 5067 4987 4871 4797 4797 4797 4797 4797 4797 4797 4797 0 0 0 0 0 0 0 0 0 0 5236 5236 5236 5236 5236 5236 5280 5325 5325 5371 5325 5280 5280 5280 5280 5280 5325 5325 5325 5325 5325 5325 5325 5325 5325 5325 5371 5371 5371 5371 5371 5371 5325 5325 5325 5325 5325 5325 5325 5325 5325 5325 5325 5325 5325 5325 5325 5371 5371 5371 5371 5325 5325 5325 5325 5325 5325 5325 5325 5371 5371 5371 5325 5325 5325 5325 5325 5325 5371 5371 5371 5371 5371 5371 5371 5371 5371 5371 5371 5371 5371 5325 5325 5325 5417 5561 5561 5561 5561 5561 5561 5561 5561 0 0 0 0 0 0 5985 5985 5985 5985 5985 5985 5928 5928 5873 5818 5818 5818 5818 5818 5818 5818 5818 5818 5818 5765 5765 5765 5713 5713 5713 5661 0 5561 5561 5561 5561 5561 5561 5561 5765 5928 5985 5985 5985 5985 5985 5928 5928 5928 5873 5873 5873 5873 5873 5873 0 0 0 0 0 0 0 0 0 5985 5985 5985 5985 5985 5985 5985 5985 5985 5985 5985 0 0 0 0 0 0 0 0 0 0 0 0 0 0 0 0 0 0 0 0 0 0 0 0 0 0 0 0 0 0 0 0 0 0 0 0 0 0 0 5713 5713 5713 5713 5818 5985 6222 6412 6546 6615 6615 6615 6546 6478 6478 6478 6478 6478 6546 6546 6615 6757 6757 6830 6830 6830 6830 6830 6830 6830 6830 6830 6830 6830 6830 0 0 0 0 0 0 0 0 0 0 6982 6347 5765 5512 5464 5325 5280 5280 5280 5280 5280 5325 5371 5464 5610 5818 6101 6161 5985 5985 5985 6042 6347 6685 6757 6757 6757 6757 6757 6347 6347 6347 6412 6412 6412 6412 6347 6161 5928 5713 5417 5371 5561 5818 5928 6222 6347 6478 6412 6546 6830 7571 7571 7481 7481 7481 7481 7481 7481 7223 6905 6830 6757 6757 6830 6757 6685 6615 6546 6478 6412 6412 6412 6412 6412 6347 6347 6412 6412 6347 6347 6284 6222 6222 6222 6347 6412 6478 6615 6757 6222 0 0 6161 6284 6284 6284 6347 6347 6347 6347 6347 6478 7307 7954 7954 7954 7954 7855 7855 7954 7954 8056 8056 8056 8056 8056 8056
    0 0 0 0 0 0 0 0 0 0 0 0 0 0 0 0 0 0 0 0 0 0 0 0 0 0 0 0 0 0 0 0 0 4689 4689 4689 4689 4689 4689 4689 4725 4725 4725 4689 4689 4689 4620 4553 4553 4553 4553 4553 4553 4553 4553 4553 4553 4553 4553 4553 4553 4553 4553 4553 4553 4553 4553 4553 4587 4587 4587 4587 4587 4587 4587 4587 4587 4587 4587 4587 4620 4655 4725 4725 4725 4725 4725 4725 4725 4725 4725 4689 4689 4689 4725 4760 4797 4797 4797 4797 4834 4834 4834 4834 4834 4834 4834 4834 4797 4797 4797 4797 4797 4797 5067 5067 5067 5067 5067 5067 5067 4948 4797 4797 4797 4797 4797 4797 4760 4760 0 0 0 0 0 0 0 0 0 0 0 5236 5236 5236 5236 5236 5236 5280 5280 5280 5325 5325 5280 5280 5280 5325 5325 5325 5371 5371 5371 5325 5325 5325 5325 5325 5325 5371 5371 5371 5371 5371 5325 5325 5325 5325 5325 5325 5325 5325 5325 5325 5325 5325 5325 5325 5325 5325 5325 5325 5325 5325 5325 5325 5325 5325 5325 5325 5325 5325 5371 5371 5371 5371 5371 5325 5325 5325 5325 5371 5371 5371 5371 5371 5371 5371 5371 5371 5371 5371 5371 5371 5371 5325 5280 5371 5512 5561 5561 5561 5561 5561 5561 0 0 0 0 0 0 0 5985 5985 5985 5985 5985 5985 5985 5928 5928 5928 5873 5873 5818 5818 5818 5818 5818 5818 5818 5818 5818 5818 5765 5765 5765 5765 0 0 0 0 0 0 0 0 5985 5985 6042 6042 6042 6042 6042 5985 5985 5928 5873 5873 5873 5873 5873 5873 0 0 0 0 0 0 0 0 0 5985 5985 5985 5985 5985 5985 5985 5985 5985 5985 5985 5985 0 0 0 0 0 0 0 0 0 0 0 0 0 0 0 0 0 0 0 0 0 0 0 0 0 0 0 0 0 0 0 0 0 0 0 0 0 0 0 5713 5985 6042 6222 6347 6478 6546 6685 6615 6615 6685 6615 6546 6546 6546 6546 6546 6546 6615 6685 6757 6757 6757 6830 6830 6830 6830 6830 6830 6830 6830 6830 6830 6830 0 0 0 0 0 0 0 0 0 0 6982 6222 5765 5610 5512 5325 5280 5280 5280 5280 5280 5371 5512 5610 5818 6161 6412 6546 6412 6412 6412 6412 6546 6685 6757 6757 6757 6757 6757 6615 6546 6478 6478 6412 6412 6412 6412 6284 6042 5818 5464 5512 5713 5985 6101 6284 6412 6546 6412 6757 7141 7571 7571 7571 7481 7481 7481 7481 7481 7307 7141 6982 6982 6982 6982 6982 6830 6757 6615 6546 6412 6412 6412 6412 6412 6347 6284 6546 6478 6347 6284 6284 6222 6222 6222 6412 6478 6615 6830 7223 7481 0 0 0 6347 6347 6347 6347 6347 6347 6347 6412 6222 7223 7855 7855 7855 7855 7954 7954 7954 7954 8056 8161 8161 8161 8161 8161
    0 0 0 0 0 0 0 0 0 0 0 0 0 0 0 0 0 0 0 0 0 0 0 0 0 0 0 0 0 0 0 0 0 4689 4689 4689 4725 4725 4725 4725 4725 4725 4725 4725 4689 4689 4620 4553 4553 4553 4553 4553 4553 4553 4553 4553 4553 4553 4553 4553 4521 4521 4521 4521 4553 4553 4553 4553 4553 4587 4587 4587 4587 4587 4587 4553 4587 4587 4587 4587 4620 4655 4689 4725 4760 4760 4760 4760 4725 4725 4689 4689 4655 4689 4725 4760 4797 4797 4797 4797 4834 4834 4834 4834 4834 4834 4834 4834 4834 4834 4834 4834 4834 4797 5067 5067 5067 5067 5067 5067 0 0 4797 4797 4797 4797 4797 4797 4760 0 0 0 0 0 0 0 0 0 0 0 0 5236 5236 5236 5236 5236 5236 5236 5236 5280 5280 5280 5325 5325 5325 5325 5371 5371 5371 5371 5371 5325 5325 5325 5325 5325 5325 5325 5371 5371 5371 5371 5325 5325 5325 5325 5325 5325 5325 5325 5325 5325 5325 5325 5325 5325 5325 5325 5325 5325 5325 5325 5325 5325 5325 5325 5325 5325 5325 5371 5371 5371 5371 5371 5371 5371 5325 5325 5280 5325 5371 5371 5371 5371 5371 5371 5371 5371 5417 5417 5417 5417 5417 5371 5280 5280 5561 5561 5561 5561 5561 5561 0 0 0 0 0 0 0 0 5985 5985 5985 5985 5985 5985 5928 5928 5928 5928 5873 5873 5818 5818 5818 5818 5818 5818 5818 5818 5818 5818 5818 5818 5818 5818 0 0 0 0 0 0 0 0 5985 5985 6042 6042 6042 6101 6101 6042 6042 5985 5928 5873 5873 5873 5873 5873 0 0 0 0 0 0 0 0 0 5985 5985 5985 5985 5985 5985 5985 5985 5985 5985 5985 5985 0 0 0 0 0 0 0 0 0 0 0 0 0 0 0 0 0 0 0 0 0 0 0 0 0 0 0 0 0 0 0 0 0 0 0 0 0 0 0 6546 6615 6615 6615 6615 6615 6615 6685 6615 6615 6615 6615 6615 6615 6546 6615 6615 6615 6685 6685 6757 6757 6757 6757 6830 6830 6830 6830 6830 6830 6830 6830 6830 6830 0 0 0 0 0 0 0 0 0 0 6982 6222 5713 5561 5512 5371 5280 5280 5280 5280 5280 5417 5610 5818 6101 6412 6615 6757 6757 6757 6757 6757 6757 6685 6757 6757 6757 6757 6685 6685 6685 6615 6546 6478 6412 6412 6412 6412 6222 5928 5464 5818 5985 6222 6347 6478 6546 6685 6478 6905 7307 7571 7571 7571 7481 7481 7481 7481 7481 7223 7061 6905 6982 6982 7141 7061 6982 6757 6615 6478 6412 6412 6412 6412 6412 6347 0 7061 6685 6347 6284 6284 6222 6222 6222 6412 6478 6615 6830 7223 7481 0 6347 6347 6347 6347 6347 6478 6478 6546 6685 6905 6905 7855 7855 7855 7855 7855 7954 7954 7954 8056 8056 8161 8161 8161 8161 8161
    0 0 0 0 0 0 0 0 0 0 0 0 0 0 0 0 0 0 0 0 0 0 0 0 0 0 0 0 0 0 0 0 0 4689 4689 4725 4725 4725 4725 4725 4725 4725 4725 4725 4689 4689 4620 4553 4553 4553 4553 4553 4553 4553 4553 4553 4553 4553 4553 4553 4553 4521 4521 4521 4553 4553 4553 4553 4553 4553 4587 4587 4587 4587 4553 4587 4587 4587 4587 4587 4620 4655 4689 4725 4760 4760 4760 4760 4725 4689 4689 4655 4655 4655 4725 4760 4797 4797 4797 4797 4834 4834 4834 4834 4834 4834 4834 4834 4834 4834 4834 4834 4834 4871 4909 4909 4909 4909 0 0 0 0 0 0 0 0 0 0 0 0 5151 5151 5151 5151 5151 5109 5109 0 0 0 0 5236 5236 5236 5236 5236 5236 5236 5236 5236 5280 5280 5280 5325 5325 5325 5371 5371 5371 5371 5325 5325 5325 5325 5325 5325 5325 5325 5325 5325 5325 5325 5325 5325 5325 5325 5280 5280 5280 5280 5325 5325 5325 5325 5325 5325 5325 5325 5325 5325 5325 5325 5325 5325 5325 5325 5325 5325 5325 5371 5371 5371 5417 5417 5371 5371 5325 5325 5280 5280 5325 5325 5371 5371 5371 5371 5417 5417 5417 5417 5417 5417 5464 5464 0 0 0 0 0 0 0 0 0 0 0 0 0 0 0 0 0 5928 5928 5928 5928 5928 5928 5928 5873 5873 5873 5873 5818 5818 5818 5818 5818 5818 5818 5818 5818 5818 5818 5818 5818 5818 0 0 0 0 0 0 0 0 5985 5985 6042 6101 6101 6161 6161 6161 6161 6101 5985 5928 5873 5873 5873 5873 0 0 0 0 0 0 0 0 0 5985 5873 5928 5985 5985 5985 5985 5985 5985 5985 5985 5985 0 0 0 0 0 0 0 0 0 0 0 0 0 0 0 0 0 0 0 0 0 0 0 0 0 0 0 0 0 0 0 0 0 0 0 0 0 0 0 6546 6615 6615 6615 6615 6615 6685 6685 6685 6685 6615 6615 6615 6615 6615 6615 6685 6685 6685 6685 6757 6757 6757 6757 6757 6757 6757 6757 6830 6830 6830 6830 6830 6830 0 0 0 0 0 0 0 0 0 0 6982 6222 5765 5610 5561 5417 5325 5325 5325 5280 5325 5512 5765 6042 6347 6615 6757 6757 6757 6757 6757 6757 6757 6685 6757 6757 6757 6757 6685 6685 6685 6685 6685 6615 6478 6222 6042 5873 5713 5561 5325 6101 6478 6685 6757 6905 6905 7061 6982 7141 7393 7571 7571 7571 7571 7481 7481 7481 7481 7307 7141 6905 6982 6982 7141 7141 7061 6830 6615 6478 6412 6412 6412 6412 6412 6347 0 0 0 6284 6222 6222 6222 6222 6222 6347 6478 6546 6685 6982 7481 7663 6757 6546 6478 6412 6412 6615 6685 6905 7223 7663 7855 7855 7855 7855 7855 7855 7954 7954 7954 8056 8056 8161 8161 8161 8161 8161
    0 0 0 0 0 0 0 0 0 0 0 0 0 0 0 0 0 0 0 0 0 0 0 0 0 0 0 0 0 0 0 0 0 4689 4689 4725 4725 4725 4725 4725 4725 4725 4725 4725 4689 4689 4655 4587 4587 4587 4587 4587 4587 4553 4553 4553 4553 4553 4553 4553 4553 4521 4521 4521 4521 4553 4553 4553 4553 4553 4553 4553 4553 4553 4587 4587 4587 4587 4587 4587 4620 4620 4655 4689 4760 4760 4760 4760 4725 4689 4655 4655 4655 4689 4725 4797 4834 4797 4797 4834 4834 4834 4871 4834 4834 4834 4834 4834 4834 4834 4834 4871 4871 4871 4909 4909 4909 4909 4871 4871 4871 0 0 0 0 0 0 0 0 0 5151 5151 5151 5151 5151 5109 5109 5109 5109 0 0 5236 5236 5236 5236 5236 5236 5236 5236 5236 5280 5280 5280 5325 5325 5325 5371 5371 5371 5325 5325 5325 5325 5325 5325 5325 5325 5325 5325 5325 5325 5325 5325 5325 5280 5280 5280 5280 5280 5280 5280 5280 5280 5325 5325 5325 5325 5325 5325 5325 5325 5325 5325 5325 5325 5325 5325 5325 5325 5371 5417 5417 5417 5417 5417 5371 5371 5371 5417 5512 5512 0 5371 5371 5417 5417 5417 5417 5417 5417 5417 5417 5464 5464 0 0 0 0 0 0 0 0 0 0 0 0 0 0 0 0 0 5928 5928 5928 5928 5928 5873 5873 5873 5873 5873 5818 5818 5818 5818 5818 5818 5818 5818 5818 5818 5818 5818 5818 5818 5818 0 0 0 0 0 0 0 0 0 5985 6161 6161 6222 6222 6222 6222 6222 6222 6161 5985 5873 5873 5873 5873 0 0 0 0 0 0 0 0 0 5512 5661 5765 5873 5873 5928 5985 5985 5985 5985 5985 5985 0 0 0 0 0 0 0 0 0 0 0 0 0 0 0 0 0 0 0 0 0 0 0 0 0 0 0 0 0 0 0 0 0 0 0 0 0 0 0 6546 6615 6615 6615 6615 6615 6685 6615 6546 6546 6546 6546 6615 6615 6615 6685 6685 6685 6685 6685 6757 6757 6757 6757 6757 6757 6757 6757 6757 6757 6757 6757 6757 6757 0 0 0 0 0 0 0 0 0 0 6982 6042 5661 5610 5561 5417 5417 5417 5371 5325 5325 5661 5928 6222 6546 6757 6757 6757 6757 6757 6757 6757 6757 6685 6685 6685 6685 6685 6685 6685 6685 6685 6685 6685 5280 5280 5280 5325 5325 5325 5325 6161 6905 7223 7307 7307 7307 7307 7307 7307 7393 7571 7571 7571 7571 7571 7571 7571 7571 7307 7061 6830 6830 6905 7061 7141 7061 6905 6757 6615 6546 6546 6478 6412 6347 6347 0 7481 7481 6478 6347 6284 6222 6222 6222 6347 6546 6685 6905 7307 7758 7758 7307 7061 6905 6757 6685 6905 6982 7223 7571 7855 7855 7855 7855 7855 7855 7855 7954 7954 8056 8056 8056 8056 8161 8161 8161 8161
    0 0 0 0 0 0 0 0 0 0 0 0 0 0 0 0 0 0 0 0 0 0 0 0 0 0 0 0 0 0 0 0 0 4725 4725 4725 4725 4725 4725 4725 4725 4725 4725 4725 4689 4689 4655 4620 4620 4620 4620 4620 4620 4587 4587 4553 4553 4553 4553 4553 4553 4553 4521 4521 4521 4553 4553 4553 4553 4553 4553 4553 4553 4587 4587 4587 4587 4587 4587 4587 4587 4587 4620 4655 4760 4760 4760 4760 4689 4655 4655 4655 4655 4689 4760 4797 4834 4797 4797 4834 4834 4834 4871 4871 4871 4871 4871 4871 4871 4871 4871 4871 4871 4871 4909 4909 4909 4909 4871 4871 4871 0 0 0 0 0 0 0 0 0 5151 5151 5151 5151 5151 5109 5109 5109 5109 5193 5193 5236 5236 5236 5236 5236 5236 5236 5236 5236 5236 5280 5280 5325 5325 5325 5371 5371 5325 5325 5325 5325 5325 5280 5280 5280 5280 5280 5325 5325 5325 5325 5325 5325 5325 5325 5280 5280 5280 5280 5280 5280 5280 5280 5280 5325 5325 5325 5325 5325 5325 5325 5325 5325 5325 5325 5325 5325 5325 5371 5417 5417 5417 5417 5417 5417 5464 5464 5512 5512 5512 5464 0 5371 5417 5417 5417 5417 5417 5417 5417 5417 5464 5464 0 0 0 0 0 0 0 0 0 0 0 0 0 0 0 0 0 5873 5928 5873 5873 5873 5873 5873 5873 5873 5873 5818 5818 5818 5818 5818 5818 5818 5818 5818 5818 5818 5818 5818 5818 5818 0 0 0 0 0 0 0 0 0 0 6222 6222 6222 6222 6222 6284 6284 6284 6284 6161 5873 5873 5873 5873 0 0 0 0 0 0 0 5561 5561 5561 5561 5610 5765 5818 5873 5985 5985 5985 5985 5985 5985 0 0 0 0 0 0 0 0 0 0 0 0 0 0 0 0 0 0 0 0 0 0 0 0 0 0 0 0 0 0 0 0 0 0 0 0 0 0 0 6546 6615 6615 6615 6615 6615 6685 6478 6478 6412 6412 6412 6615 6615 6615 6685 6685 6685 6685 6757 6757 6757 6757 6757 6757 6757 6757 6757 6757 6757 6757 6757 6757 6757 0 0 0 0 0 0 0 0 0 0 6982 5873 5661 5561 5561 5464 5512 5464 5464 5417 5417 5713 6101 6284 6546 6685 6685 6685 6685 6685 6685 6685 6685 6685 6685 6685 6685 6685 6685 6685 6546 6412 6161 5818 5325 5325 5280 5280 5280 5280 5280 5765 6546 7307 7307 7393 7307 7393 7393 7307 7307 7571 7571 7571 7571 7571 7571 7571 7571 7393 7141 6982 6982 6905 6982 7061 7061 6905 6757 6615 6546 6546 6478 6412 6347 6347 7481 7481 7481 6905 6757 6615 6412 6347 6284 6347 6478 6685 6982 7393 7758 7758 7571 7307 7141 7061 6982 7141 7223 7481 7663 7855 7855 7855 7855 7855 7855 7855 7954 7954 8056 8056 8056 8056 8056 8056 8056 8056
    0 0 0 0 0 0 0 0 0 0 0 0 0 0 0 0 0 0 0 0 0 0 0 0 0 0 0 0 0 0 0 0 0 4725 4725 4725 4725 4725 4725 4725 4725 4725 4725 4725 4725 4725 4689 4655 4655 4655 4620 4620 4620 4587 4587 4553 4553 4553 4553 4553 4553 4553 4521 4521 4521 4521 4553 4553 4553 4553 4553 4553 4553 4587 4587 4587 4587 4587 4620 4620 4620 4587 4587 4620 4655 4689 4689 4725 4689 4655 4655 4655 4689 4725 4760 4797 4834 4834 4834 4834 4834 4834 4871 4871 4871 4871 4871 4871 4871 4871 4871 4871 4871 4909 4909 4909 4909 4909 4871 4871 4871 0 0 0 0 0 0 0 0 5151 5151 5151 5151 5151 5151 5151 5151 5151 5151 5193 5193 5236 5236 5236 5236 5236 5236 5236 5236 5236 5236 5236 5280 5325 5325 5371 5371 5371 5325 5325 5325 5325 5325 5325 5325 5325 5325 5325 5325 5325 5325 5325 5325 5325 5325 5325 5325 5280 5280 5280 5280 5280 5280 5280 5280 5325 5325 5325 5325 5325 5325 5325 5325 5325 5325 5325 5325 5325 5325 5371 5417 5417 5417 5464 5464 5464 5512 5512 5512 5512 5512 5464 5417 5371 5417 5417 5417 5417 5417 5417 5417 5464 5464 5464 0 0 0 0 0 0 0 0 0 0 0 0 0 0 0 0 0 5873 5873 5873 5873 5873 5873 5873 5873 5873 5873 5818 5818 5818 5818 5818 5818 5818 5818 5818 5818 5818 5818 5818 5818 5818 0 0 0 0 0 0 0 0 0 0 6222 6222 6222 6284 6284 6284 6284 6284 6284 6284 0 0 0 0 0 0 0 0 0 0 5561 5561 5561 5561 5561 5561 5661 5713 5818 5873 5985 5985 5985 5985 5985 0 0 0 0 0 0 0 0 0 0 0 0 0 0 0 0 0 0 0 0 0 0 0 0 0 0 0 0 0 0 0 0 0 0 0 0 0 0 0 6546 6546 6615 6615 6615 6615 6685 6347 6347 6347 6347 6347 6546 6615 6412 6478 6546 6615 6615 6757 6757 6757 6757 6685 6685 6685 6685 6685 6685 6685 6685 0 0 0 0 0 0 0 0 0 0 0 0 0 0 5610 5561 5561 5561 5561 5561 5610 5610 5610 5661 0 6685 6685 6685 6685 6685 6685 6685 6685 6685 6685 6685 6685 6685 6685 6685 6685 6685 6685 6412 6101 5818 5561 5325 5280 5280 5280 5280 5280 5280 5464 5985 6830 7393 7393 7393 7393 7393 7307 7223 0 7663 7663 7663 7663 7663 7571 7571 7393 7223 7061 7061 6905 6982 6982 7061 6830 6757 6685 6615 6546 6478 6347 6347 6347 7481 7481 7481 7141 6982 6830 6615 6478 6347 6347 6412 6757 7141 7571 7855 7855 7663 7481 7393 7307 7223 7393 7481 7663 7855 7855 7855 7855 7855 7855 7855 7855 7855 7954 7758 7855 7855 7954 7954 8056 8056 8056
    0 0 0 0 0 0 0 0 0 0 0 0 0 0 0 0 0 0 0 0 0 0 0 0 0 0 0 0 0 0 0 0 0 4725 4725 4725 4725 4725 4725 4725 4725 4725 4725 4725 4725 4725 4689 4689 4689 4655 4655 4620 4620 4587 4587 4553 4553 4553 4553 4553 4553 4553 4521 4521 4521 4521 4553 4553 4553 4553 4553 4553 4553 4587 4587 4587 4587 4620 4620 4620 4620 4587 4587 4587 4587 4620 4620 4655 4655 4655 4655 4689 4725 4760 4797 4834 4834 4797 4834 4834 4834 4834 4871 4871 4871 4871 4871 4871 4871 4871 4871 4909 4909 4909 4909 4909 4909 4909 4871 4871 4871 0 0 0 0 0 0 0 0 5151 5151 5151 5151 5151 5151 5151 5151 5151 5151 5193 5193 5193 5236 5236 5236 5236 5236 5236 5193 5193 5236 5236 5236 5280 5325 5371 5371 5371 5371 5371 5325 5325 5325 5325 5325 5325 5325 5325 5325 5325 5325 5325 5325 5325 5325 5325 5325 5325 5280 5280 5280 5280 5280 5280 5280 5325 5325 5325 5325 5325 5325 5325 5325 5325 5325 5325 5325 5325 5325 5371 5417 5464 5464 5464 5464 5464 5512 5512 5512 5512 5464 5464 5464 5417 5417 5417 5417 5417 5464 5464 5464 5464 5464 0 0 0 0 0 0 0 0 0 0 0 0 0 0 0 0 0 0 5873 5873 5873 5873 5873 5873 5873 5873 5873 5873 5818 5818 5818 5818 5818 5818 5818 5818 5818 5818 5818 0 0 0 0 0 0 0 0 0 0 0 0 0 0 6222 6222 6222 6284 6284 6284 6284 6284 6284 6284 0 0 0 0 0 0 0 0 0 0 5561 5561 5561 5561 5561 5561 5610 5661 5765 5818 5985 5985 5985 5985 5985 0 0 0 0 0 0 0 0 0 0 0 0 0 0 0 0 0 0 0 0 0 0 0 0 0 0 0 0 0 0 0 0 0 0 0 0 0 0 0 0 0 0 0 0 0 6685 6101 6161 6284 6347 6284 6546 6222 5661 5765 6042 6222 6412 6615 6757 6757 6757 6685 6685 6685 6685 6685 6685 0 0 0 0 0 0 0 0 0 0 0 0 0 0 0 0 5661 5661 5661 5661 5661 5661 5661 5661 5661 5661 5661 0 6685 6685 6685 6685 6685 6685 6685 6685 6685 6685 6685 0 0 6685 6685 6685 6685 6042 5713 5561 5417 5325 5280 5280 5280 5280 5280 5280 5280 5512 6161 7481 7481 7393 7393 7393 7307 7223 7307 7663 7663 7663 7663 7663 7663 7663 7481 7393 7223 7223 7061 7061 7141 7141 6982 6982 6830 6685 6615 6546 6347 6347 6347 7481 7481 7481 7307 7223 7061 6905 6685 6546 6478 6478 6905 7307 7663 7855 7855 7758 7663 7571 7571 7571 7663 7758 7855 7855 7855 7855 7855 7855 7855 7855 7855 7855 7758 7393 7307 7393 7481 7571 7855 8056 7954
    0 0 0 0 0 0 0 0 0 0 0 0 0 0 0 0 0 0 0 0 0 0 0 0 0 0 0 0 0 0 0 0 0 4725 4725 4725 4725 4725 4725 4725 4725 4725 4725 4725 4725 4725 4725 4689 4689 4655 4655 4620 4620 4587 4587 4553 4553 4553 4553 4553 4553 4553 4521 4521 4521 4521 4521 4553 4553 4553 4553 4553 4553 4587 4587 4587 4620 4620 4620 4620 4620 4587 4587 4587 4587 4587 4587 4587 4620 4655 4655 4725 4760 4760 4797 4834 4834 4834 4834 4834 4834 4871 4871 4871 4871 4871 4871 4871 4871 4871 4909 4909 4909 4909 4909 4909 4909 4909 4909 4871 4871 0 0 0 0 0 0 0 0 5151 5151 5151 5151 5151 5151 5151 5151 5193 5193 5193 5193 5193 5236 5236 5236 5236 5236 5236 5193 5236 5236 5236 5236 5280 5325 5371 5371 5371 5371 5371 5371 5325 5325 5325 5325 5325 5325 5325 5325 5325 5371 5371 5371 5371 5371 5371 5325 5325 5325 5325 5280 5280 5280 5280 5325 5325 5325 5325 5325 5371 5325 5325 5325 5325 5325 5325 5371 5371 5371 5417 5464 5464 5464 5464 5464 5512 5512 5512 5512 5512 5464 5464 5464 5417 5417 5464 5464 5464 5464 5464 5464 0 0 0 0 0 0 0 0 0 0 0 0 0 0 0 0 0 0 0 5818 5873 5873 5873 5873 5873 5873 5818 5818 5818 5818 5873 5873 5873 5873 5873 5873 5873 5873 5818 5818 0 0 0 0 0 0 0 0 0 0 0 0 0 0 0 6222 6222 6222 6284 6284 6284 6284 6284 6284 6284 0 0 0 0 0 5561 5561 5561 5610 5610 5610 5610 5610 5561 5561 5561 5561 5610 5661 5765 5928 5985 5985 5985 5985 0 0 0 0 0 0 0 0 0 0 0 0 0 0 0 0 0 0 0 0 0 0 0 0 0 0 0 0 0 0 0 0 0 0 0 0 0 0 0 0 0 0 0 0 0 6615 5928 6042 6161 6161 6042 6478 5765 5193 5417 5818 6042 6222 6615 6757 6757 6757 6685 6685 6685 6685 6685 0 0 0 0 0 0 0 0 0 0 0 0 0 0 0 0 0 5661 5661 5661 5661 5661 5661 5661 5661 5661 5661 5661 0 0 6685 6685 6685 6685 6685 6685 6685 6685 6685 6685 0 0 0 0 0 0 5371 5325 5325 5325 5325 5280 5280 5280 5280 5280 5280 5280 5280 5610 7061 7393 7393 7393 7393 7393 7393 7393 7571 7663 7663 7663 7663 7663 7663 7571 7481 7393 7393 7307 7307 7307 7571 7571 7571 7223 7061 6905 6905 6685 6830 7393 7481 7481 7481 7393 7307 7307 7141 6982 6905 6905 6830 7307 7663 7855 7855 7855 7855 7855 7855 7855 7855 7855 7855 7855 7855 7855 7855 7855 7855 7855 7855 7954 7954 7571 7141 6982 6905 6905 7141 7571 7855 7954
    0 0 0 0 0 0 0 0 0 0 0 0 0 0 0 0 0 0 0 0 0 0 0 0 0 0 0 0 0 0 0 0 0 4725 4725 4725 4725 4725 4725 4725 4725 4725 4725 4725 4725 4725 4725 4725 4689 4689 4655 4620 4620 4587 4587 4553 4553 4553 4553 4553 4553 4553 4521 4521 4521 4521 4521 4521 4553 4553 4553 4553 4553 4587 4587 4587 4620 4620 4620 4620 4620 4620 4587 4587 4587 4587 4587 4587 4620 4655 4689 4725 4760 4797 4797 4834 4834 4834 4834 4834 4834 4871 4871 4871 4871 4909 4909 4909 4909 4909 4871 4871 4871 4871 4909 4909 4909 4909 4909 4871 4871 0 0 0 0 0 0 0 0 5151 5151 5151 5151 5151 5151 5193 5193 5193 5236 5236 5236 5193 5193 5236 5236 5236 5236 5236 5236 5236 5236 5236 5236 5280 5325 5371 5371 5417 5417 5417 5371 5371 5371 5325 5325 5325 5325 5371 5371 5371 5371 5371 5417 5417 5417 5371 5371 5371 5325 5325 5325 5325 5325 5325 5325 5325 5325 5325 5371 5371 5371 5325 5325 5325 5325 5371 5371 5371 5371 5417 5464 5464 5464 5464 5464 5512 5512 5512 5464 5464 5464 5464 5464 5417 5417 5464 5464 5464 5464 5464 5464 5464 0 0 0 0 0 0 0 0 0 0 0 0 0 0 0 0 0 0 5818 5818 5818 5818 5818 5818 5818 5873 5873 5873 5873 5873 5873 5873 5873 5873 5873 5873 5873 5818 0 0 0 0 0 0 0 0 0 0 0 0 0 0 0 0 0 6222 6222 6284 6284 6284 6284 6284 6284 6284 0 0 0 0 5561 5561 5561 5561 5610 5610 5610 5610 5610 5561 5561 5561 5561 5561 5610 5661 5873 5985 5985 5928 0 0 0 0 0 0 0 0 0 0 0 0 0 0 0 0 0 0 0 0 0 0 0 0 0 0 0 0 0 0 0 0 0 0 0 0 0 0 0 0 0 0 0 0 0 0 0 5610 5610 5610 5610 5610 0 5193 5193 5417 5713 5873 6101 6546 6757 6757 6757 6685 6685 6685 6685 0 0 0 0 0 0 0 0 0 0 0 0 0 0 0 0 0 0 5661 5661 5661 5661 5661 5661 5661 5661 5661 5661 5661 5610 0 6685 6685 6685 6685 6685 6685 6685 6685 6685 6685 0 0 0 0 0 0 5325 5325 5325 5325 5325 5280 5280 5280 5280 5280 5280 5280 5280 5713 6830 7393 7393 7393 7393 7393 7393 7393 7393 7481 7571 7571 7571 7663 7663 7571 7571 7571 7571 7571 7571 7571 7481 6284 6284 6284 6615 6757 7061 7307 7393 7393 7481 7481 7481 7481 7481 7481 7393 7393 7481 7481 7481 7663 7758 7855 7855 7855 7855 7855 7855 7855 7855 7855 7855 7855 7855 7855 7855 7855 7855 7954 7954 7954 7954 7481 6982 6685 6478 6347 6546 7061 7393 7663
    0 0 0 0 0 0 0 0 0 0 0 0 0 0 0 0 0 0 0 0 0 0 0 0 0 0 0 0 0 0 0 0 0 4725 4725 4725 4725 4725 4725 4725 4725 4725 4725 4725 4725 4725 4725 4725 4689 4689 4655 4655 4620 4620 4587 4587 4587 4553 4553 4553 4553 4553 4521 4521 4521 4521 4521 4521 4521 4553 4553 4553 4553 4587 4587 4587 4620 4620 4620 4620 4620 4620 4620 4620 4620 4620 4620 4620 4620 4655 4725 4760 4797 4797 4834 4834 4834 4834 4834 4834 4871 4871 4871 4871 4871 4909 4909 4909 4909 4909 4871 4871 4871 4871 4909 4909 4909 4909 4948 4871 0 0 0 0 0 0 0 0 0 5193 5193 5193 5193 5193 5193 5193 5236 5236 5236 5236 5236 5236 5236 5236 5236 5236 5236 5236 5236 5236 5236 5236 5236 5280 5280 5325 5371 5417 5417 5417 5371 5371 5371 5371 5371 5371 5371 5371 5371 5417 5417 5417 5417 5417 5417 5417 5371 5371 5371 5371 5325 5325 5325 5325 5325 5325 5325 5371 5371 5371 5371 5371 5325 5325 5371 5371 5371 5371 5371 5417 5417 5464 5464 5464 5464 5512 5512 5464 5464 5464 5464 5464 5464 5417 5417 5464 5464 5464 5464 5464 5464 5464 0 0 0 0 0 0 0 0 0 0 0 0 0 0 0 0 0 0 5818 5818 5818 5818 5818 5818 5818 5873 5873 5873 5873 5873 5873 5873 5873 5928 5928 5928 5928 5928 5928 0 0 0 0 0 0 0 0 0 0 0 0 0 0 0 0 0 0 6284 6284 6284 6284 6284 6284 6284 0 0 0 0 5561 5561 5561 5561 5561 5610 5610 5610 5610 5561 5561 5561 5561 5512 5512 5512 5464 0 0 0 0 0 0 0 0 0 0 0 0 0 0 0 0 0 0 0 0 0 0 0 0 0 0 0 0 0 0 0 0 0 0 0 0 0 0 0 0 0 0 0 0 0 0 0 0 0 0 0 0 0 0 0 0 5193 5193 5417 5561 5713 5873 6412 6757 6757 6757 0 0 0 0 0 0 0 0 0 0 0 0 0 0 0 0 0 0 0 0 0 0 5661 5661 5661 5661 5661 5661 5661 5661 5661 5661 5661 5610 0 0 0 0 0 0 0 0 0 0 0 0 0 0 0 0 5236 5325 5325 5325 5325 5280 5280 5280 5280 5280 5280 5280 5280 5280 5765 6685 7393 7393 7393 7393 7393 7393 7393 7393 7393 7481 7481 7571 7571 7571 7571 7571 7571 7571 7571 7571 7223 6685 6284 6284 6284 6478 6685 6982 7223 7393 7393 7481 7481 7481 7481 7481 7481 7481 7481 7481 7481 7481 7571 7758 7855 7855 7855 7855 7855 7855 7855 7855 7855 7855 7855 7855 7855 7855 7855 7954 7954 7954 7954 7954 7481 6757 6347 6101 5985 6042 6412 6830 7223
    0 0 0 0 0 0 0 0 0 0 0 0 0 0 0 0 0 0 0 0 0 0 0 0 0 0 0 0 0 0 0 0 0 4725 4725 4725 4689 4689 4689 4689 4689 4689 4725 4725 4725 4725 4725 4689 4689 4689 4655 4655 4655 4620 4620 4587 4587 4587 4553 4553 4553 4553 4521 4521 4521 4521 4521 4521 4553 4553 4553 4553 4587 4587 4587 4620 4620 4620 4620 4620 4620 4620 4620 4620 4620 4620 4620 4620 4620 4725 4797 4797 4797 4834 4834 4797 4834 4834 4834 4834 4871 4871 4871 4871 4871 4909 4909 4909 4909 4871 4871 4871 4871 4871 4909 4948 4948 4987 5067 5109 0 0 0 0 0 0 0 0 0 5193 5193 5193 5193 5193 5193 5236 5236 5236 5236 5236 5236 5236 5236 5236 5236 5236 5236 5236 5236 5236 5236 5236 5236 5280 5280 5325 5371 5417 5417 5417 5417 5371 5371 5371 5371 5371 5371 5417 5417 5417 5417 5417 5417 5417 5417 5417 5371 5371 5371 5371 5371 5371 5325 5325 5325 5325 5371 5371 5371 5371 5371 5371 5371 5371 5371 5371 5371 5371 5417 5417 5417 5464 5464 5464 5464 5464 5464 5464 5464 5464 5464 5464 5464 5417 5464 5464 5464 5464 5464 5464 5464 5464 0 0 0 0 0 0 0 0 0 0 0 0 0 0 0 0 0 0 5818 5818 5818 5818 5818 5818 5818 5873 5873 5873 5873 5873 5873 5873 5928 5928 5928 5928 5928 5928 5928 5928 0 0 5928 5928 5765 5661 5610 5512 5417 5371 5371 0 0 0 0 0 0 0 6284 6284 6284 6284 6284 6284 0 0 5464 5464 5512 5561 5561 5561 5561 5610 5610 5610 5610 5561 5561 5561 5561 5512 5512 5512 0 0 0 0 0 0 0 0 0 0 0 0 0 0 0 0 0 0 0 0 0 0 0 0 0 0 0 0 0 0 0 0 0 0 0 0 0 0 0 0 0 0 0 0 0 0 0 0 0 0 0 0 0 0 0 0 0 5193 5193 5193 5193 5193 5193 5193 0 0 0 0 0 0 0 0 0 0 0 0 0 0 0 0 0 0 0 0 0 0 0 0 0 5661 5661 5661 5661 5661 5661 5661 5661 5661 5661 5661 5610 0 0 0 0 0 5193 5193 5193 5193 5193 0 0 0 0 0 5236 5236 5280 5280 5280 5280 5280 5280 5280 5280 5280 5280 5280 5280 5371 5873 6546 7141 7393 7393 7393 7393 7393 7393 7393 7393 7481 7481 7481 7571 7571 7393 7307 7141 6905 6546 6101 5818 5561 5818 5985 6042 6284 6615 6830 7061 7307 7393 7481 7481 7481 7481 7481 7481 7481 7481 7481 7481 7481 7481 7663 7855 7855 7855 7855 7855 7855 7855 7855 7855 7855 7855 7855 7855 7855 7954 7954 7954 7954 7954 7954 7307 6615 6101 5818 5713 5713 5928 6284 6615
    0 0 0 0 0 0 0 0 0 0 0 0 0 0 0 0 0 0 0 0 0 0 0 0 0 0 0 0 0 0 0 0 0 4725 4689 4689 4689 4689 4689 4689 4689 4689 4689 4725 4725 4725 4725 4725 4689 4689 4689 4655 4655 4655 4620 4620 4620 4587 4587 4587 4553 4553 4553 4521 4521 4553 4553 4553 4553 4553 4553 4587 4587 4587 4620 4620 4620 4620 4620 4620 4620 4620 4620 4620 4655 4655 4655 4689 4797 4834 4834 4834 4834 4834 4834 4797 4834 4834 4834 4871 4871 4871 4871 4909 4871 4909 4909 4909 4871 4871 4871 4871 4871 4871 4948 4987 5067 5109 5109 5109 5109 5109 0 0 0 0 0 0 0 5236 5236 5236 5236 5236 5236 5236 5236 5236 5236 5236 5236 5236 5236 5236 5236 5236 5236 5236 5236 5236 5236 5236 5280 5280 5280 5280 5325 5371 5417 5417 5417 5371 5371 5371 5371 5371 5417 5417 5417 5417 5417 5417 5417 5417 5417 5417 5417 5417 5417 5371 5371 5371 5371 5371 5325 5371 5371 5371 5417 5371 5371 5371 5371 5371 5371 5371 5371 5417 5417 5417 5417 5464 5464 5464 5464 5464 5464 5464 5464 5464 5464 5464 5464 5464 5464 5464 5464 5464 5464 5464 5464 5464 0 0 0 0 0 0 0 0 0 0 0 0 0 0 0 0 0 0 5818 5818 5818 5818 5818 5818 5818 5873 5873 5873 5873 5873 5873 5873 5928 5928 5928 5928 5928 5928 5928 5928 0 0 5928 5818 5661 5610 5561 5464 5417 5371 5371 5371 0 0 0 0 0 0 0 6284 6284 6284 6284 6284 0 5464 5464 5464 5512 5512 5561 5561 5561 5561 5561 5610 5610 5561 5561 5561 5561 5561 5512 5512 0 0 0 0 0 0 0 0 0 0 0 0 0 0 0 0 0 0 0 0 0 0 0 0 0 0 0 0 0 0 0 0 0 0 0 0 0 0 0 0 0 0 0 0 0 0 0 0 0 0 0 0 0 0 0 0 0 0 5193 5193 5193 5193 5193 0 0 0 0 0 0 0 0 0 0 0 0 0 0 0 0 0 0 0 0 0 0 0 0 0 0 5661 5661 5661 5661 5661 5661 5661 5661 5661 5610 5610 5610 0 0 0 0 5193 5193 5193 5193 5193 5193 5193 5193 5193 5236 5236 5236 5236 5280 5280 5280 5280 5280 5280 5280 5280 5280 5280 5280 5280 5371 5765 6222 6830 7141 7393 7307 7393 7393 7393 7393 7481 7481 7481 7481 7061 6222 6101 6042 5985 5873 5713 5464 5464 5417 5610 5765 5928 6161 6412 6757 6982 7307 7393 7481 7481 7571 7571 7393 7393 7307 7223 7223 7481 7481 7481 7481 7855 7855 7855 7855 7663 7481 7481 7571 7571 7758 7855 7855 7855 7855 7954 7954 7954 7954 7954 7954 7141 6347 5928 5661 5512 5464 5610 5765 6042
    0 0 0 0 0 0 0 0 0 0 0 0 0 0 0 0 0 0 0 0 0 0 0 0 0 0 0 0 0 0 0 0 0 4689 4689 4689 4689 4689 4689 4689 4689 4689 4689 4689 4725 4725 4725 4725 4689 4689 4689 4689 4689 4655 4655 4655 4655 4620 4620 4587 4587 4553 4553 4521 4521 4553 4553 4553 4553 4587 4587 4587 4620 4620 4620 4620 4655 4655 4655 4655 4655 4655 4655 4655 4655 4689 4725 4725 4797 4797 4834 4834 4834 4834 4834 4797 4834 4834 4834 4871 4871 4871 4909 4909 4871 4909 4871 4871 4871 4871 4871 4871 4871 4909 4987 5067 5109 5109 5109 5109 5109 5109 5109 5109 0 0 0 0 5236 5236 5236 5236 5236 5236 5236 5236 5236 5236 5236 5236 5236 5236 5236 5236 5236 5236 5236 5236 5236 5236 5236 5236 5280 5280 5280 5280 5325 5371 5417 5417 5417 5371 5371 5371 5371 5417 5417 5417 5464 5464 5464 5417 5417 5417 5417 5417 5417 5417 5417 5417 5417 5371 5371 5371 5371 5371 5417 5417 5417 5417 5371 5371 5371 5371 5371 5371 5417 5417 5417 5417 5417 5417 5417 5417 5417 5464 5464 5464 5464 5464 5464 5464 5464 5464 5464 5464 5464 5464 5464 5464 5464 5464 0 0 0 0 0 0 0 0 0 0 0 0 0 0 0 0 0 0 5818 5818 5818 5818 5818 5818 5818 5873 5873 5873 5873 5873 5873 5873 5928 5928 5928 5928 5928 5928 5928 5928 0 0 5765 5661 5610 5561 5512 5464 5417 5417 5371 5371 0 0 0 0 0 0 0 0 0 0 0 5873 5873 5765 5661 5610 5561 5561 5561 5561 5561 5561 5561 5561 5561 5561 5561 5561 5610 5610 5610 5661 5985 0 0 0 0 0 0 0 0 0 0 0 0 0 0 0 0 0 0 0 0 0 0 0 0 0 0 0 0 0 0 0 0 0 0 0 0 0 0 0 0 0 0 0 0 0 0 0 0 0 0 0 0 0 0 0 0 0 0 0 0 0 0 0 0 0 0 0 0 0 0 0 0 0 0 0 0 0 0 0 0 0 0 0 0 0 0 0 0 5661 5661 5661 5661 5661 5661 5661 5661 5661 5610 5610 5610 0 0 0 5193 5193 5193 5193 5193 5193 5193 5193 5193 5193 5236 5236 5236 5236 5280 5280 5280 5280 5280 5280 5280 5280 5280 5280 5280 5280 5371 5661 6042 6478 6905 7307 7307 7307 7393 7393 7481 7481 7481 7481 7223 6615 5610 5464 5512 5512 5512 5512 5417 5417 5371 5512 5661 5765 5985 6284 6615 6982 7307 7481 7481 7571 7571 7571 7307 7223 7141 6982 6830 7481 7481 7481 7481 0 7855 7855 7855 7481 7393 7393 7393 7481 7663 7855 7855 7855 7855 7954 7954 7954 7663 7307 6982 6412 5873 5661 5512 5417 5280 5325 5417 5561
    0 0 0 0 0 0 0 0 0 0 0 0 0 0 0 0 0 0 0 0 0 0 0 0 0 0 0 0 0 0 0 0 0 4725 4689 4689 4689 4689 4689 4689 4689 4725 4725 4725 4725 4725 4725 4725 4725 4689 4689 4689 4689 4689 4689 4689 4655 4655 4655 4620 4620 4587 4553 4521 4521 4553 4553 4587 4587 4620 4620 4620 4620 4620 4655 4655 4655 4655 4655 4655 4655 4655 4655 4689 4689 4725 4725 4760 4760 4797 4797 4834 4834 4834 4834 4797 4797 4834 4834 4834 4871 4871 4909 4909 4871 4871 4871 4871 4871 4871 4871 4871 4909 4987 5067 5109 5109 5109 5109 5109 5109 5109 5109 5109 5109 0 0 5236 5236 5236 5236 5236 5236 5236 5236 5236 5236 5236 5236 5236 5236 5236 5236 5236 5236 5236 5236 5236 5236 5236 5236 5280 5280 5280 5325 5325 5325 5417 5464 5464 5417 5417 5371 5371 5371 5417 5464 5464 5464 5464 5464 5417 5417 5417 5417 5417 5417 5417 5417 5417 5417 5417 5371 5371 5371 5371 5417 5417 5417 5417 5417 5371 5371 5371 5417 5417 5417 5417 5417 5417 5417 5417 5417 5417 5417 5464 5464 5464 5464 5464 5464 5464 5464 5464 5464 5464 5464 5464 5464 5464 5464 5464 5561 0 0 0 0 0 0 0 0 0 0 0 0 0 0 0 0 0 5818 5818 5818 5818 5818 5818 5873 5873 5873 5873 5873 5873 5873 5873 5928 5928 5928 5928 5928 5928 5928 5928 5873 0 5765 5661 5561 5512 5512 5464 5417 5417 5417 5417 0 0 0 0 0 0 0 0 0 0 5873 5873 5873 5818 5713 5661 5610 5561 5512 5561 5561 5610 5610 5610 5610 5610 5610 5610 5661 5713 5765 5818 5985 5985 0 0 0 0 0 0 0 0 0 0 0 0 0 0 0 0 0 0 0 0 0 0 0 0 0 0 0 0 0 0 0 0 0 0 0 0 0 0 0 0 0 0 0 0 0 0 0 0 0 0 0 0 0 0 0 0 0 0 0 0 0 0 0 0 0 0 0 0 0 0 0 0 0 0 0 0 0 0 0 0 0 0 0 0 0 0 0 0 5661 5661 5661 5661 5661 5610 5610 5610 5610 5610 0 0 0 0 5193 5193 5193 5193 5193 5193 5193 5193 5193 5193 5236 5236 5236 5236 5236 5236 5280 5280 5280 5280 5280 5280 5280 5280 5280 5280 5417 5610 5873 6222 6685 7223 7307 7307 7481 7481 7481 7481 7481 7481 7141 6347 5661 5610 5610 5661 5610 5561 5464 5417 5371 5417 5512 5661 5818 6042 6412 6830 7223 7481 7481 7571 7571 7481 7141 6982 6757 6412 6222 6161 6161 0 0 0 7855 7855 7855 7307 7141 7223 7223 7307 7571 7855 7855 7855 7855 7954 7954 7954 7141 6478 5928 5765 5512 5464 5417 5417 5280 5280 5236 5236
    0 0 0 0 0 0 0 0 0 0 0 0 0 0 0 0 0 0 0 0 0 0 0 0 0 0 0 0 0 0 0 0 0 4725 4725 4725 4725 4725 4725 4725 4725 4725 4725 4725 4725 4725 4725 4725 4725 4725 4725 4725 4689 4689 4689 4689 4689 4689 4689 4655 4655 4620 4587 4553 4553 4587 4620 4620 4620 4620 4620 4655 4655 4655 4655 4655 4655 4655 4655 4655 4655 4655 4689 4689 4725 4725 4760 4760 4760 4797 4797 4834 4834 4834 4834 4797 4797 4834 4834 4834 4871 4871 4871 4871 4871 4871 4871 4871 4871 4871 4871 4871 4948 5027 5109 5109 5109 5109 5109 5109 5109 5109 5109 5109 5109 5193 5193 5236 5236 5236 5236 5236 5236 5236 5236 5236 5236 5236 5236 5236 5236 5236 5236 5236 5236 5236 5236 5236 5236 5236 5236 5280 5280 5325 5325 5371 5417 5417 5464 5464 5464 5464 5464 5464 5464 5464 5464 5464 5464 5464 5464 5417 5417 5417 5417 5417 5417 5417 5417 5417 5417 5417 5417 5417 5371 5417 5464 5417 5417 5417 5417 5417 5417 5417 5417 5417 5417 5417 5417 5417 5417 5417 5417 5417 5417 5464 5464 5512 5512 5512 5512 5464 5464 5464 5464 5464 5464 5464 5464 5464 5512 5512 5610 5610 5610 5610 5610 5610 5610 5610 0 0 0 0 0 0 0 0 0 0 0 0 0 0 0 0 0 5873 5873 5873 5873 5873 5873 5873 5873 5928 5928 5928 5928 5928 5928 5928 5873 5873 5818 5661 5561 5512 5512 5464 5417 5417 5417 5417 0 0 0 0 0 0 0 0 0 0 5873 5873 5873 5873 5765 5713 5610 5561 5512 5561 5610 5661 5661 5661 5661 5661 5661 5661 5713 5765 5873 5928 5985 5985 0 0 0 0 0 0 0 0 0 0 0 0 0 0 0 0 0 0 0 0 0 0 0 0 0 0 0 0 0 0 0 0 0 0 0 0 0 0 0 0 0 0 0 0 0 0 0 0 0 0 0 0 0 0 0 0 0 0 0 0 0 0 0 0 0 0 0 0 0 0 0 0 0 0 0 0 0 0 0 0 0 0 0 0 0 0 0 0 0 0 0 0 0 0 0 0 0 0 0 0 0 0 5193 5280 5280 5280 5280 5325 5280 5280 5325 5325 5325 5325 5325 5280 5236 5236 5236 5280 5280 5280 5280 5325 5325 5371 5417 5417 5561 5713 5873 6042 6478 6982 7307 0 7571 7571 7571 7571 7571 7571 7061 6101 5610 5713 5713 5765 5713 5661 5561 5464 5325 5325 5417 5561 5661 5873 6161 6478 6830 7223 7481 7571 7571 7393 6982 6757 6478 6222 6101 6161 6161 6161 0 0 0 0 7758 6757 6615 6757 6905 7061 7393 7855 7855 7855 7855 7954 7954 7954 6615 5928 5661 5512 5464 5417 5371 5325 5280 5236 5236 5236
    0 0 0 0 0 0 0 0 0 0 0 0 0 0 0 0 0 0 0 0 0 0 0 0 0 0 0 0 0 0 0 0 0 4725 4725 4725 4725 4725 4725 4725 4725 4725 4725 4725 4725 4760 4760 4760 4760 4725 4725 4725 4725 4725 4725 4689 4689 4689 4689 4689 4689 4655 4655 4620 4620 4655 4655 4655 4655 4655 4655 4655 4655 4655 4655 4655 4655 4655 4655 4655 4655 4655 4689 4689 4725 4725 4760 4760 4760 4797 4797 4797 4834 4797 4797 4797 4797 4834 4834 4834 4834 4871 4871 4871 4871 4871 4871 4871 4871 4871 4871 4909 4987 5067 5109 5109 5109 5109 5109 5151 5151 5151 5109 5109 5151 5193 5193 5236 5236 5236 5236 5236 5236 5236 5236 5236 5236 5236 5236 5236 5280 5280 5280 5280 5280 5280 5280 5280 5280 5280 5325 5325 5371 5417 5417 5417 5464 5464 5464 5464 5464 5464 5464 5464 5464 5464 5464 5464 5464 5464 5464 5417 5417 5417 5464 5464 5464 5464 5464 5464 5417 5417 5417 5464 5464 5512 5464 5464 5464 5417 5417 5417 5417 5417 5417 5417 5417 5417 5417 5417 5417 5417 5417 5417 5417 5464 5512 5561 5512 5512 5512 5512 5512 5512 5512 5512 5512 5512 5512 5512 5512 5561 5610 5610 5610 5610 5610 5610 5610 5610 0 0 0 0 0 0 0 0 0 0 0 0 0 0 0 0 0 0 5873 5873 5873 5873 5873 5873 5873 5873 5928 5928 5928 5928 5928 5928 5873 5873 5818 5610 5512 5464 5464 5417 5417 5417 5417 5417 5371 0 0 0 0 0 0 0 0 0 5873 5873 5873 5873 5818 5765 5661 5561 5561 5610 5661 5765 5765 5765 5765 5713 5713 5713 5765 5873 5928 5985 5985 5985 0 0 0 0 0 0 0 0 0 0 0 0 0 0 0 0 0 0 0 0 0 0 0 0 0 0 0 0 0 0 0 0 0 0 0 0 0 0 0 0 0 0 0 0 0 0 0 0 0 0 0 0 0 0 0 0 0 0 0 0 0 0 0 0 0 0 0 0 0 0 0 0 0 0 0 0 0 0 0 0 0 0 0 0 0 0 0 0 0 0 0 0 0 0 0 0 0 0 0 0 0 0 5193 5280 5325 5371 5371 5371 5371 5325 5325 5371 5371 5371 5371 5325 5236 5236 5236 5236 5280 5280 5280 5325 5417 5464 5512 5561 5610 5713 5765 5873 6101 6615 0 0 7571 7571 7571 7571 7571 7571 6830 6042 5765 5765 5765 5765 5765 5713 5661 5561 5512 5464 5512 5610 5713 5873 6042 6161 6347 6830 7307 7481 7393 7141 6757 6546 6284 6101 6042 6161 6161 6161 6161 0 0 0 0 5325 5325 5325 5325 5985 6830 7855 7855 7855 7855 7855 0 0 5280 5280 5464 5371 5325 5371 5417 5417 5417 5417 5371 5325
    0 0 0 0 0 0 0 0 0 0 0 0 0 0 0 0 0 0 0 0 0 0 0 0 0 0 0 0 0 0 0 0 0 4760 4760 4760 4760 4760 4760 4760 4760 4725 4725 4760 4760 4760 4760 4760 4760 4760 4760 4760 4760 4760 4725 4725 4725 4725 4689 4689 4689 4689 4689 4689 4689 4689 4689 4689 4689 4689 4689 4689 4689 4689 4689 4689 4689 4655 4655 4655 4655 4689 4689 4725 4725 4725 4760 4760 4760 4797 4797 4797 4797 4797 4797 4797 4797 4797 4834 4834 4834 4834 4834 4834 4834 4871 4871 4871 4909 4909 4948 4948 5027 5109 5109 5109 5109 5109 5109 5151 5151 5151 5151 5109 5151 5193 5193 5236 5236 5236 5236 5236 5236 5236 5236 5236 5236 5236 5236 5236 5280 5280 5280 5280 5280 5280 5280 5280 5325 5325 5371 5371 5417 5464 5464 5464 5464 5464 5464 5464 5464 5464 5464 5464 5464 5464 5464 5464 5464 5464 5464 5417 5417 5417 5464 5464 5464 5464 5464 5464 5464 5417 5417 5464 5464 5464 5464 5464 5464 5464 5417 5417 5417 5417 5417 5417 5417 5417 5417 5417 5417 5417 5417 5417 5417 5464 5512 5561 5561 5561 5512 5512 5512 5512 5512 5512 5512 5512 5561 5561 5561 5561 5610 5610 5610 5610 5610 5610 5610 5610 0 0 0 0 0 0 0 0 0 0 0 0 0 0 0 0 0 0 0 0 5818 5818 5873 5873 5873 5873 5873 5873 5873 5928 5928 5928 5873 5873 5818 5610 5417 5417 5417 5417 5417 5417 5417 5417 5417 5417 5417 0 0 0 0 0 0 0 5873 5818 5818 5765 5765 5713 5661 5610 5661 5713 5818 5873 5873 5873 5818 5765 5765 5765 5818 5928 5985 5985 5985 5985 0 0 0 0 0 0 0 0 0 0 0 0 0 0 0 0 0 0 0 0 0 0 0 0 0 0 0 0 0 0 0 0 0 0 0 0 0 0 0 0 0 0 0 0 0 0 0 0 0 0 0 0 0 0 0 0 0 0 0 0 0 0 0 0 0 0 0 0 0 0 0 0 0 0 0 0 0 0 0 0 0 0 0 0 0 0 0 0 0 0 0 0 0 0 0 0 0 0 0 0 0 0 5193 5325 5371 5417 5417 5417 5371 5371 5371 5464 5512 5512 5512 5417 5280 5236 5236 5236 5236 5280 5280 5371 5512 5561 5661 5713 5765 5873 5985 6101 6347 6546 6478 6412 6757 7223 7307 7393 7571 7307 6546 6042 5928 5928 5928 5928 5928 5928 5818 5713 5661 5610 5610 5713 5818 5928 6101 6222 6222 6412 6830 6982 6982 6905 6685 6478 6284 6161 6101 6161 6161 6161 6161 0 0 0 0 0 0 0 0 0 0 0 0 0 0 0 0 0 5280 5280 5464 5371 5371 5417 5512 5561 5561 5561 5561 5464
    0 0 0 0 0 0 0 0 0 0 0 0 0 0 0 0 0 0 0 0 0 0 0 0 0 0 0 0 0 0 0 0 0 4797 4797 4797 4797 4797 4760 4760 4760 4760 4760 4760 4760 4760 4760 4760 4760 4760 4760 4760 4760 4760 4760 4760 4725 4725 4725 4689 4689 4689 4689 4689 4689 4725 4689 4689 4689 4689 4689 4689 4689 4689 4689 4689 4689 4655 4655 4655 4655 4689 4689 4725 4725 4725 4760 4760 4760 4797 4797 4797 4834 4834 4834 4834 4834 4797 4834 4834 4834 4834 4834 4834 4834 4834 4871 4909 4948 4948 4987 4987 5027 5067 5067 5109 5109 5109 5109 5151 5151 5151 5151 5151 5151 5193 5193 5236 5236 5236 5236 5236 5236 5236 5236 5236 5236 5280 5280 5280 5280 5280 5280 5280 5280 5280 5280 5325 5325 5371 5371 5417 5417 5464 5464 5464 5464 5464 5464 5464 5464 5464 5464 5464 5464 5464 5464 5464 5464 5464 5464 5417 5417 5417 5464 5464 5464 5464 5464 5464 5464 5417 5417 5464 5464 5464 5464 5464 5464 5464 5464 5417 5417 5417 5417 5417 5417 5417 5417 5417 5417 5417 5417 5417 5464 5464 5512 5561 5561 5561 5561 5561 5512 5561 5561 5561 5561 5561 5561 5561 5561 5610 5610 5610 5610 5610 5610 5610 5610 5610 0 0 0 0 0 0 0 0 0 0 0 0 0 0 0 0 0 0 0 0 5818 5818 5873 5873 5873 5873 5873 5873 5873 5873 5873 5873 5928 5928 5928 5713 5417 5417 5417 5417 5417 5417 5417 5417 5417 5417 5417 5417 5417 5417 0 0 0 0 5873 5765 5713 5713 5661 5610 5610 5661 5818 5928 5985 5985 5985 5985 5928 5873 5873 5873 5873 5985 5985 5985 5985 5985 0 0 0 0 0 0 0 0 0 0 0 0 0 0 0 0 0 0 0 0 0 0 0 0 0 0 0 0 0 0 0 0 0 0 0 0 0 0 0 0 0 0 0 0 0 0 0 0 0 0 0 0 0 0 0 0 0 0 0 0 0 0 0 0 0 0 0 0 0 0 0 0 0 0 0 0 0 0 0 0 0 0 0 0 0 0 0 0 0 0 0 0 0 0 0 0 0 0 0 0 0 0 0 5417 5512 5512 5512 5512 5464 5464 5512 5610 5661 5661 5661 5512 5325 5236 5236 5236 5236 5236 5280 5464 5610 5713 5818 5873 5928 6042 6101 6222 6478 6478 6478 6412 6347 6478 6615 6685 6757 6615 6347 6101 6161 6161 6101 6101 6101 6101 5985 5873 5765 5765 5765 5873 5985 6042 6161 6222 6222 6347 6546 6685 6685 6615 6546 6412 6284 6222 6222 6161 6161 6161 6161 0 0 0 0 0 0 0 0 0 0 0 0 0 0 0 0 0 5280 5280 5561 5464 5417 5464 5661 5713 5713 5765 5818 5713
    0 0 0 0 0 0 0 0 0 0 0 0 0 0 0 0 0 0 0 0 0 0 0 0 0 0 0 0 0 0 0 0 0 4797 4797 4797 4797 4797 4797 4797 4760 4760 4760 4760 4760 4760 4797 4797 4797 4797 4797 4797 4797 4797 4760 4760 4760 4725 4725 4689 4689 4689 4689 4689 4689 4725 4725 4725 4725 4725 4725 4725 4689 4689 4689 4689 4689 4655 4655 4655 4689 4689 4689 4725 4725 4760 4760 4760 4797 4797 4797 4797 4834 4834 4834 4834 4834 4834 4834 4834 4834 4834 4834 4834 4834 4834 4871 4909 4948 4987 4987 4987 4987 5027 5027 5067 5067 5067 5109 5151 5151 5151 5151 5151 5151 5193 5193 5236 5236 5236 5236 5236 5236 5236 5236 5280 5280 5280 5280 5280 5280 5280 5280 5280 5280 5280 5280 5325 5371 5371 5417 5417 5417 5417 5464 5464 5464 5464 5464 5464 5464 5464 5464 5464 5464 5464 5464 5464 5464 5464 5464 5417 5417 5417 5417 5464 5464 5464 5464 5464 5464 5417 5417 5464 5464 5464 5464 5464 5464 5464 5464 5464 5464 5464 5464 5464 5417 5417 5417 5417 5417 5417 5417 5464 5464 5512 5512 5561 5561 5561 5561 5561 5561 5561 5561 5561 5561 5561 5561 5610 5610 5610 5610 5610 5610 5610 5610 5610 5610 5610 0 0 0 0 0 0 0 0 0 0 0 0 0 0 0 0 0 0 0 0 5873 5873 5873 5873 5873 5873 5873 5873 5873 5873 5873 5873 5928 5928 5928 5818 5610 5464 5417 5417 5417 5417 5417 5417 5417 5417 5417 5417 5561 5713 5873 5873 5873 5873 5873 5661 5610 5561 5561 5561 5610 5713 5928 5985 5985 5985 5985 5985 5985 5985 5985 5985 5985 5985 5985 5985 5985 5985 0 0 0 0 0 0 0 0 0 0 0 0 0 0 5985 5985 5985 5985 5985 5985 5985 0 0 0 0 0 0 0 0 0 0 0 0 0 0 0 0 0 0 0 0 0 0 0 0 0 0 0 0 0 0 0 0 0 0 0 0 0 0 0 0 0 0 0 0 0 0 0 0 0 0 0 0 0 0 0 0 0 0 0 0 0 0 0 0 0 0 0 0 0 0 0 0 0 0 0 0 0 0 0 0 0 0 5713 5713 5713 5713 5765 5765 5765 5873 5985 6042 6042 5928 5765 5371 5236 5236 5236 5236 5236 5280 5610 5818 5928 5985 6042 6042 6161 6222 6347 6478 6478 6478 6412 6347 6347 6284 6284 6222 6222 6222 6222 6222 6222 6222 6222 6222 6222 6161 6042 5985 5985 5985 6101 6161 6161 6222 6222 6222 6284 6412 6478 6412 6412 6412 6284 6222 6222 6222 6161 6161 6161 6161 0 0 0 0 0 0 0 0 0 0 0 0 0 0 0 0 0 0 0 6757 5713 5464 5512 5661 5713 5765 5873 6042 5985
    0 0 0 0 0 0 0 0 0 0 0 0 0 0 0 0 0 0 0 0 0 0 0 0 0 0 0 0 0 0 0 0 0 4834 4834 4834 4834 4834 4797 4797 4760 4760 4725 4725 4760 4760 4797 4797 4797 4797 4797 4797 4797 4797 4797 4760 4760 4725 4725 4689 4689 4689 4689 4689 4689 4725 4725 4725 4725 4725 4725 4725 4725 4689 4689 4689 4689 4655 4655 4655 4689 4689 4689 4725 4760 4760 4760 4797 4797 4797 4797 4834 4834 4834 4834 4834 4834 4834 4834 4834 4834 4834 4797 4797 4834 4834 4871 4909 4948 4987 4987 4987 4987 5027 5027 5027 5027 5067 5109 5151 5151 5109 5151 5151 5151 5151 5193 5193 5236 5236 5236 5236 5236 5236 5280 5280 5280 5280 5280 5280 5280 5280 5280 5280 5280 5280 5325 5325 5371 5417 5417 5417 5417 5417 5417 5417 5464 5464 5464 5464 5464 5464 5464 5464 5464 5464 5464 5464 5464 5464 5417 5417 5417 5417 5417 5464 5464 5464 5464 5464 5417 5417 5417 5464 5464 5464 5464 5464 5464 5464 5464 5464 5464 5464 5464 5464 5464 5417 5417 5417 5417 5417 5417 5464 5464 5512 5512 5561 5561 5561 5561 5561 5561 5561 5561 5561 5561 5561 5561 5561 5610 5610 5610 5610 5610 5610 5610 5610 5610 5561 0 0 0 0 0 0 0 0 0 0 0 0 0 0 0 0 0 0 0 5873 5873 5873 5873 5873 5873 5873 5873 5873 5873 5873 5873 5873 5873 5928 5928 5873 5713 5561 5512 5464 5464 5464 5464 5417 5417 5417 5417 5561 5713 5818 5873 5873 5873 5873 5873 5765 5661 5610 5610 5610 5661 5765 5928 5985 5985 5985 5985 5985 5985 5985 5985 5985 5985 5985 5985 5985 5985 0 0 0 0 0 0 0 0 0 0 0 0 0 0 0 5985 5985 5985 5985 5985 5985 5985 0 0 0 0 0 0 0 0 0 0 0 0 0 0 0 0 0 0 0 0 0 0 0 0 0 0 0 0 0 0 0 0 0 0 0 0 0 0 0 0 0 0 0 0 0 0 0 0 0 0 0 0 0 0 0 0 0 0 0 0 0 0 0 0 0 0 0 0 0 0 0 0 0 0 0 0 0 0 5610 5610 5610 5610 5610 5661 5661 5661 5713 5713 5765 5818 5928 5873 5928 5873 5818 5512 5236 5236 5236 5236 5236 5236 5873 6042 6042 6101 6101 6161 6284 6412 6546 6615 6685 6685 6685 6685 6685 6546 6478 6412 6347 6222 6222 6222 6284 6347 6347 6412 6412 6412 6161 6161 6161 6161 6161 6222 6222 6222 6284 6284 6284 6412 6478 6478 6478 6478 6412 6347 6222 6222 6161 6161 6161 6161 0 0 0 0 0 0 0 0 0 0 0 0 0 0 0 0 0 0 0 7855 5928 5610 5561 5713 5713 5765 5873 6042 5985
    0 0 0 0 0 0 0 0 0 0 0 0 0 0 0 0 0 0 0 0 0 0 0 0 0 0 0 0 0 0 0 0 0 4834 4834 4834 4834 4834 4834 4797 4760 4725 4725 4725 4725 4760 4797 4797 4797 4797 4797 4797 4797 4797 4797 4760 4760 4725 4725 4689 4689 4689 4689 4689 4689 4725 4725 4725 4725 4725 4725 4725 4689 4689 4689 4689 4689 4655 4655 4689 4689 4689 4725 4725 4760 4760 4760 4797 4797 4797 4797 4834 4834 4834 4834 4834 4834 4834 4834 4834 4834 4834 4797 4797 4834 4834 4909 4909 4948 4987 4987 4987 4987 4987 5027 5027 5027 5067 5109 5151 5109 5109 5109 5109 5151 5151 5151 5193 5236 5236 5236 5236 5280 5280 5280 5280 5280 5280 5280 5280 5280 5280 5280 5280 5280 5280 5325 5325 5371 5371 5371 5371 5371 5417 5417 5417 5464 5464 5464 5464 5464 5464 5464 5464 5464 5464 5464 5464 5464 5464 5464 5417 5417 5417 5464 5464 5464 5464 5464 5464 5464 5417 5417 5417 5417 5464 5464 5464 5464 5464 5464 5464 5464 5464 5464 5464 5464 5417 5417 5417 5417 5417 5417 5464 5464 5512 5512 5561 5512 5512 5512 5512 5512 5512 5561 5561 5561 5561 5561 5561 5610 5610 5610 5610 5610 5610 5610 5610 5610 5610 0 0 0 0 0 0 0 0 0 0 0 0 0 0 0 0 5928 5928 5928 5928 5873 5873 5873 5873 5873 5873 5873 5873 5873 5873 5873 5873 5873 5928 5928 5873 5765 5661 5610 5512 5512 5512 5464 5417 5417 5464 5512 5713 5765 5873 5873 5873 5873 5873 5873 5765 5661 5661 5661 5661 5713 5818 5928 5928 5985 5985 5985 5985 5985 5985 5985 5985 5985 5985 5985 5985 5985 0 0 0 0 0 0 0 0 0 0 0 0 5713 5873 5928 5985 5985 5985 5985 5985 5985 5985 0 0 0 0 0 0 0 0 0 0 0 0 0 0 0 0 0 0 0 0 0 0 0 0 0 0 0 0 0 0 0 0 0 0 0 0 0 0 0 0 0 0 0 0 0 0 0 0 0 0 0 0 0 0 0 0 0 0 0 0 0 0 0 0 0 0 0 0 0 0 0 0 0 0 0 0 0 0 5610 5610 5610 5610 5610 5610 5610 5610 5661 5661 5713 5765 5818 5818 5818 5818 5818 5713 5610 0 0 0 0 0 6101 6101 6161 6222 6222 6284 6412 6546 6615 6685 6757 6757 6757 6757 6757 6757 6757 6685 6546 6412 6347 6284 6347 6412 6546 6615 6685 6685 6161 6042 6101 6101 6101 6284 6284 6284 6284 6284 6284 6347 6412 6478 6478 6478 6478 6412 6222 6161 6161 6161 0 0 0 0 0 0 0 0 0 0 0 0 0 0 0 0 0 0 0 0 7855 7855 6757 6101 5818 5713 5610 5561 5610 5765 5713
    0 0 0 0 0 0 0 0 0 0 0 0 0 0 0 0 0 0 0 0 0 0 0 0 0 0 0 0 0 0 0 0 0 4834 4834 4834 4834 4834 4834 4797 4760 4725 4725 4725 4760 4797 4834 4834 4834 4834 4797 4797 4797 4797 4797 4760 4760 4725 4725 4689 4689 4689 4689 4689 4689 4725 4725 4725 4725 4725 4725 4725 4689 4689 4689 4689 4689 4689 4689 4689 4689 4689 4725 4725 4760 4760 4760 4797 4797 4797 4834 4834 4834 4834 4871 4871 4871 4834 4834 4834 4834 4834 4834 4834 4834 4871 4909 4948 4948 4948 4987 4987 4987 5027 5027 5027 5067 5067 5109 5109 5109 5109 5109 5109 5109 5151 5151 5193 5193 5236 5236 5236 5280 5280 5280 5280 5280 5280 5280 5280 5280 5280 5280 5280 5280 5280 5325 5325 5371 5371 5371 5371 5371 5417 5417 5417 5464 5464 5464 5464 5464 5464 5464 5464 5464 5464 5464 5464 5464 5464 5464 5417 5417 5464 5464 5464 5464 5464 5464 5464 5464 5464 5417 5464 5464 5464 5464 5464 5464 5464 5464 5464 5464 5464 5464 5464 5464 5417 5417 5417 5417 5417 5417 5464 5512 5512 5512 5512 5512 5512 5512 5512 5512 5512 5512 5561 5561 5561 5561 5561 5561 5610 5610 5610 5610 5610 5610 5610 5610 5610 5661 5661 5661 5661 5661 5661 5661 0 0 0 0 0 0 0 0 0 5928 5928 5928 5928 5873 5873 5873 5873 5873 5873 5873 5873 5873 5873 5873 5873 5873 5873 5928 5873 5873 5765 5713 5661 5610 5561 5561 5417 5464 5561 5610 5765 5818 5873 5873 5873 5873 5873 5873 5818 5765 5713 5713 5713 5765 5818 5873 5928 5928 5985 5985 5985 5985 6042 6042 6042 6042 6042 6042 5985 5985 0 0 0 0 0 0 0 0 0 0 0 5713 5713 5765 5818 5873 5928 5928 5985 5985 5985 5985 0 0 0 0 0 0 0 0 0 0 0 0 0 0 0 0 0 0 0 0 0 0 0 0 0 0 0 0 0 0 0 0 0 0 0 0 0 0 0 0 0 0 0 0 0 0 0 0 0 0 0 0 0 0 0 0 0 0 0 0 0 0 0 0 0 0 0 0 0 0 0 0 0 0 0 0 0 0 5610 5610 5610 5610 5610 5610 5610 5610 5661 5661 5713 5713 5713 5713 5713 5713 5713 5610 5610 0 0 0 0 0 6101 6101 6161 6347 6412 6478 6615 6757 6830 6830 6830 6830 6830 6830 6905 6905 6905 6830 6757 6615 6478 6347 6412 6615 6757 6905 7061 7223 6546 6101 6042 6042 6101 6284 6284 6284 6284 6284 6284 6412 6478 6546 6546 6546 6546 6478 6222 0 0 0 0 0 0 0 0 0 0 0 0 0 0 0 0 0 0 0 0 0 0 7855 7855 7855 7141 6412 5985 5765 5512 5417 5464 5512 5512
    0 0 0 0 0 0 0 0 0 0 0 0 0 0 0 0 0 0 0 0 0 0 0 0 0 0 0 0 0 0 0 0 0 4834 4834 4834 4834 4834 4797 4797 4760 4725 4725 4725 4760 4797 4834 4834 4834 4834 4797 4797 4797 4797 4760 4760 4725 4725 4689 4689 4689 4689 4689 4689 4689 4725 4725 4725 4725 4725 4725 4689 4689 4689 4689 4689 4689 4689 4689 4689 4689 4725 4725 4725 4725 4760 4760 4797 4797 4797 4834 4834 4871 4871 4871 4871 4871 4871 4871 4871 4871 4871 4871 4909 4909 4909 4948 4948 4948 4987 4987 4987 5027 5027 5027 5067 5067 5109 5109 5151 5109 5109 5109 5109 5109 5151 5151 5193 5236 5236 5280 5280 5280 5280 5280 5280 5280 5280 5280 5280 5280 5280 5280 5280 5280 5280 5325 5325 5371 5371 5371 5371 5371 5417 5417 5464 5464 5464 5464 5464 5464 5464 5464 5464 5417 5464 5464 5464 5464 5464 5464 5417 5417 5464 5464 5464 5464 5464 5464 5464 5464 5464 5417 5464 5464 5464 5464 5464 5464 5464 5464 5464 5464 5464 5464 5464 5464 5464 5417 5417 5464 5464 5464 5464 5512 5512 5512 5512 5512 5512 5512 5512 5512 5512 5512 5512 5512 5561 5561 0 0 5610 5661 5661 5661 5610 5610 5610 5610 5610 5661 5661 5661 5661 5661 5661 5661 5661 0 0 0 0 0 0 0 0 5928 5928 5928 5928 5873 5873 5873 5873 5873 5873 5873 5873 5873 5873 5873 5873 5873 5873 5873 5928 5928 5873 5873 5818 5765 5713 5661 5512 5512 5765 5818 5873 5873 5873 5873 5873 5873 5873 5873 5818 5818 5765 5818 5818 5818 5873 5873 5873 5928 5928 5985 5985 5985 6042 6042 6042 6042 6042 6042 5985 5985 0 0 0 0 0 0 0 0 0 0 0 5713 5713 5765 5765 5818 5873 5928 5928 5928 5985 5985 0 0 0 0 0 0 0 0 0 0 0 0 0 0 0 0 0 0 0 0 0 0 0 0 0 0 0 0 0 0 0 0 0 0 0 0 0 0 0 0 0 0 0 0 0 0 0 0 0 0 0 0 0 0 0 0 0 0 0 0 0 0 0 0 0 0 0 0 0 0 0 0 0 0 0 0 0 0 5610 5610 5610 5610 5610 5610 5610 5610 5661 5661 5661 5661 5713 5661 5661 5661 5661 5610 5610 0 0 0 0 0 6101 6101 6284 6478 6546 6685 6830 6982 7061 7061 7061 7061 6982 7061 7141 7141 7141 7061 6905 6757 6615 6412 6412 6685 6905 6982 7141 7307 6685 6222 5985 5985 6042 6284 6284 6284 6284 6284 6284 6478 6615 6685 6757 6830 6757 6757 0 0 0 0 0 0 0 0 0 0 0 0 0 0 0 0 0 0 0 0 0 0 0 7855 7855 7855 7393 6685 6222 5818 5512 5325 5325 5325 5371
    0 0 0 0 0 0 0 0 0 0 0 0 0 0 0 0 0 0 0 0 0 0 0 0 0 0 0 0 0 0 0 0 0 4834 4834 4834 4834 4834 4797 4760 4760 4725 4725 4725 4760 4797 4834 4834 4834 4834 4797 4797 4797 4797 4760 4725 4725 4689 4689 4689 4689 4689 4689 4689 4689 4689 4689 4689 4689 4725 4689 4689 4689 4689 4689 4689 4689 4689 4689 4689 4689 4725 4725 4725 4725 4725 4760 4760 4797 4797 4834 4834 4871 4871 4871 4871 4871 4871 4871 4909 4909 4948 4948 4987 4987 4987 4987 4987 4987 4987 4987 5027 5027 5067 5067 5109 5109 5109 5151 5151 5151 5109 5109 5109 5151 5151 5193 5236 5236 5280 5280 5280 5280 5280 5280 5280 5325 5325 5325 5325 5280 5280 5280 5280 5280 5280 5325 5325 5371 5371 5371 5371 5417 5417 5464 5464 5464 5464 5464 5464 5464 5464 5417 5417 5417 5464 5464 5464 5464 5464 5464 5417 5464 5464 5464 5464 5464 5464 5464 5464 5464 5464 5417 5464 5464 5464 5464 5464 5464 5464 5464 5464 5464 5464 5464 5464 5464 5464 5464 5464 5464 5464 5464 5464 5512 5512 5512 5512 5512 5512 5512 5464 5464 5464 5512 5512 5512 5561 5561 0 0 0 5661 5661 5661 5661 5661 5610 5610 5610 5661 5661 5661 5661 5661 5661 5661 5661 0 0 0 0 0 0 0 0 5928 5928 5928 5928 5873 5873 5873 5873 5873 5873 5873 5873 5873 5873 5818 5818 5873 5873 5873 5873 5873 5873 5928 5928 5873 5765 5713 5464 5464 5765 5873 5873 5873 5873 5873 5873 5818 5818 5818 5818 5818 5818 5818 5818 5818 5818 5873 5873 5873 5928 5928 5985 5985 6042 6042 6042 6042 6042 6042 5985 5985 0 0 0 0 0 0 0 0 0 0 0 5713 5713 5765 5765 5818 5818 5873 5873 5873 5928 5985 0 0 0 0 0 0 0 0 0 0 0 0 0 0 0 0 0 0 0 0 0 0 0 0 0 0 0 0 0 0 0 0 0 0 0 0 0 0 0 0 0 0 0 0 0 0 0 0 0 0 0 0 0 0 0 0 0 0 0 0 0 0 0 0 0 0 0 0 0 0 0 0 0 0 0 0 0 0 5610 5610 5610 5610 5610 5610 5610 5610 5610 5610 5661 5661 5661 5661 5661 5661 5661 5610 5610 0 0 0 0 0 0 6101 6412 6830 6905 6982 7141 7307 7307 7307 7393 7393 7481 7481 7481 7393 7393 7307 7223 7061 6905 6546 6546 6830 6982 7141 7223 7307 6685 6222 5873 5873 5873 6284 6284 6284 6284 6284 6284 7393 7393 7393 7393 7393 7393 7393 0 0 0 0 0 0 0 0 0 0 0 0 0 0 0 0 0 0 0 0 0 0 0 6830 6905 7307 7223 6685 6347 5985 5561 5280 5280 5280 5280
    0 0 0 0 0 0 0 0 0 0 0 0 0 0 0 0 0 0 0 0 0 0 0 0 0 0 0 0 0 0 0 0 0 4797 4797 4797 4797 4797 4797 4760 4760 4725 4725 4760 4760 4797 4834 4834 4834 4834 4797 4797 4797 4760 4760 4725 4725 4689 4689 4689 4689 4689 4689 4689 4689 4689 4689 4689 4689 4689 4689 4689 4689 4689 4689 4689 4725 4725 4725 4725 4725 4725 4725 4725 4725 4725 4725 4760 4760 4797 4834 4834 4871 4871 4909 4909 4871 4871 4871 4909 4948 4987 4987 5027 5027 4987 4987 4987 4987 4987 4987 5027 5067 5067 5109 5109 5151 5151 5151 5151 5151 5151 5151 5151 5151 5193 5193 5236 5236 5280 5280 5280 5280 5280 5280 5325 5325 5325 5325 5325 5325 5325 5280 5280 5280 5325 5325 5325 5371 5371 5417 5417 5417 5464 5464 5464 5464 5464 5464 5464 5464 5417 5417 5417 5417 5464 5464 5464 5464 5464 5464 5464 5464 5464 5464 5464 5464 5464 5464 5464 5464 5464 5417 5464 5464 5464 5464 5464 5464 5464 5464 5464 5464 5464 5464 5464 5464 5464 5464 5464 5464 5464 5464 5464 5512 5512 5512 5512 5512 5512 5464 5464 5464 5464 5512 5512 5512 5561 5561 0 0 0 5661 5661 5661 5661 5661 5610 5610 5610 5661 5661 5661 5661 5661 5661 5661 5661 0 0 0 0 0 0 0 0 5928 5928 5928 5928 5873 5873 5873 5873 5873 5818 5818 5818 5818 5818 5818 5818 5818 5873 5873 5873 5873 5873 5873 5873 5765 5661 5512 5236 5371 5713 5873 5873 5873 5818 5818 5818 5818 5818 5818 5818 5818 5818 5818 5818 5818 5818 5818 5818 5873 5873 5928 5928 5985 6042 6042 6042 6042 6042 6042 5985 5985 0 0 0 0 0 0 0 0 0 0 0 5713 5713 5765 5765 5765 5818 5818 5818 5818 5873 5928 0 0 0 0 0 0 0 0 0 0 0 0 0 0 0 0 0 0 0 0 0 0 0 0 0 0 0 0 0 0 0 0 0 0 0 0 0 0 0 0 0 0 0 0 0 0 0 0 0 0 0 0 0 0 0 0 0 0 0 0 0 0 0 0 0 0 0 0 0 0 0 0 0 0 0 0 0 0 5610 5610 5610 5610 5610 5661 5661 5661 5661 5661 5610 5610 5661 5661 5661 5661 5661 5610 5610 0 0 0 0 0 0 0 7223 7223 7223 7223 7223 7307 7307 7307 7307 7307 7481 7481 7481 7481 7481 7481 7481 7481 7481 7223 7061 7141 7141 7223 7307 7393 7061 6757 6222 5765 5765 6222 0 0 0 0 0 0 0 0 0 0 0 0 0 0 0 0 0 0 0 0 0 0 0 0 0 0 0 0 7855 7855 7855 7855 7855 7855 7855 6982 6982 7307 7393 6982 6685 6347 5928 5512 5464 5371 5280
    0 0 0 0 0 0 0 0 0 0 0 0 0 0 0 0 0 0 0 0 0 0 0 0 0 0 0 0 0 0 0 0 0 4760 4797 4797 4797 4797 4797 4760 4760 4760 4760 4760 4797 4797 4834 4834 4834 4797 4797 4797 4797 4760 4760 4725 4725 4689 4689 4689 4689 4689 4689 4689 4689 4689 4689 4689 4689 4689 4689 4689 4725 4725 4725 4725 4725 4725 4725 4725 4725 4725 4725 4725 4725 4725 4725 4760 4760 4797 4797 4834 4871 4871 4909 4909 4871 4871 4871 4948 5027 5067 5109 5109 5067 5027 5027 5027 4987 4987 5027 5067 5109 5109 5151 5151 5151 5151 5193 5193 5193 5151 5151 5151 5193 5193 5236 5280 5280 5280 5280 5280 5280 5280 5325 5325 5325 5325 5325 5325 5325 5325 5280 5280 5280 5325 5325 5325 5371 5371 5417 5417 5464 5464 5464 5464 5464 5464 5464 5464 5464 5417 5417 5417 5417 5464 5464 5464 5464 5464 5464 5464 5464 5512 5512 5512 5464 5464 5464 5464 5464 5464 5417 5464 5464 5464 5464 5464 5464 5464 5464 5464 5464 5464 5464 5464 5464 5464 5464 5464 5464 5464 5464 5464 5512 5512 5512 5512 5512 5512 5464 5464 5464 5464 5512 5512 5512 5561 5561 0 0 0 5661 5661 5661 5661 5661 5610 5610 5610 5661 5661 5661 5661 5661 5661 5661 5661 0 0 0 0 0 0 0 0 5928 5928 5928 5928 5873 5873 5873 5873 5873 5818 5818 5818 5818 5818 5818 5818 5818 5818 5873 5873 5873 5873 5873 5873 5765 5661 5561 5512 5561 5713 5818 5818 5818 5818 5818 5818 5818 5818 5818 5818 5818 5818 5818 5818 5818 5818 5818 5818 5818 5873 5873 5928 5985 6042 6042 6042 6042 6042 6042 5985 0 0 0 0 0 0 0 6222 6222 6222 6222 6222 6161 5985 5928 5873 5818 5818 5818 5818 5765 5818 5928 0 0 0 0 0 0 0 0 0 0 0 0 0 0 0 0 0 0 0 0 0 0 0 0 0 0 0 0 0 0 0 0 0 0 0 0 0 0 0 0 0 0 0 0 0 0 0 0 0 0 0 0 0 0 0 0 0 0 0 0 0 0 0 0 0 0 0 0 0 0 0 0 0 0 0 0 0 0 6757 6757 6757 6830 6615 6161 5928 5818 5713 5661 5610 5661 5661 5661 5661 5661 5661 5610 0 0 0 0 0 0 0 0 0 7223 7223 7223 7223 7223 7223 7223 7223 7223 7481 7481 7481 7481 7481 7481 7481 7481 7481 7307 7223 7223 7223 7223 7307 7393 7307 7307 7307 0 0 0 0 0 0 0 0 0 0 0 0 0 0 0 0 0 0 0 0 0 0 0 0 0 0 6757 6757 6757 6757 6982 7307 7571 7758 7855 7855 7855 7855 7307 7141 7307 7393 7061 6905 6685 6284 5928 5765 5661 5512
    0 0 0 0 0 0 0 0 0 0 0 0 0 0 0 0 0 0 0 0 0 0 0 0 0 0 0 0 0 0 0 0 0 4797 4797 4797 4797 4797 4797 4760 4760 4760 4760 4797 4797 4797 4834 4834 4834 4834 4797 4797 4797 4760 4725 4725 4725 4725 4689 4689 4689 4689 4689 4689 4689 4689 4689 4689 4689 4689 4689 4725 4725 4725 4725 4760 4760 4725 4725 4725 4725 4725 4725 4725 4725 4725 4725 4760 4760 4797 4797 4834 4871 4871 4871 4871 4871 4871 4871 4948 5067 5109 5109 5109 5109 5067 5027 5027 5027 5027 5067 5109 5151 5151 5151 5193 5193 5193 5193 5193 5193 5193 5193 5193 5193 5236 5280 5280 5280 5280 5280 5280 5280 5280 5325 5325 5371 5371 5371 5371 5371 5325 5280 5280 5280 5325 5325 5325 5371 5417 5464 5464 5464 5512 5512 5512 5512 5464 5464 5464 5464 5417 5417 5417 5417 5464 5512 5512 5512 5512 5512 5512 5512 5512 5512 5512 5512 5464 5464 5464 5464 5464 5417 5464 5464 5464 5464 5464 5464 5464 5464 5417 5417 5417 5417 5464 5464 5464 5464 5464 5464 5464 5464 5464 5512 5512 5512 5512 5512 5464 5464 5464 5464 5464 5464 5464 5512 5512 5561 0 0 0 5661 5661 5661 5661 5661 5610 5610 5610 5661 5661 5661 5661 5661 5661 5661 5661 0 0 0 0 0 0 0 0 5873 5873 5873 5873 5873 5873 5873 5873 5873 5818 5818 5818 5818 5818 5818 5818 5818 5818 5818 5873 5873 5873 5873 5873 5765 5661 5610 5610 5661 5765 5818 5818 5818 5818 5818 5818 5818 5818 5818 5818 5818 5818 5818 5818 5818 5818 5818 5818 5818 5818 5873 5873 5928 5985 6042 0 0 0 0 0 0 0 0 0 0 0 6222 6222 6222 6222 6222 6222 6222 6161 6042 5985 5928 5873 5873 5818 5713 5713 0 0 0 0 0 0 0 0 0 0 0 0 0 0 0 0 0 0 0 0 0 0 0 0 0 0 0 0 0 0 0 0 0 0 0 0 0 0 0 0 0 0 0 0 0 0 0 0 0 0 0 0 0 0 0 0 0 0 0 0 0 0 0 0 0 0 0 0 0 0 0 0 0 0 0 0 0 0 6757 6757 6757 6757 6830 6830 6478 6161 5985 5818 5713 5661 5661 5661 5661 5661 5661 5661 5610 0 0 0 0 0 0 0 0 7141 7141 7141 7141 7223 7223 7223 7223 7223 7223 7307 7393 7393 7481 7481 7481 7481 7481 7481 7307 7223 7223 7223 7223 7307 7307 7307 7307 7307 7393 7393 7393 7393 7393 7307 7307 7307 0 0 0 0 0 0 0 0 0 0 0 0 0 0 0 0 0 0 6757 6757 6757 6757 6905 7141 7393 7571 7855 7855 7855 7855 7393 7141 7223 7307 7141 7061 6982 6685 6347 6101 5928 5661</data></DepthMat>
</opencv_storage>
