<?xml version="1.0"?>
<opencv_storage>
<DepthMat type_id="opencv-matrix">
  <rows>34</rows>
  <cols>512</cols>
  <dt>w</dt>
  <data>
    0 0 0 0 0 0 0 0 0 0 0 0 0 0 0 0 0 0 0 0 0 0 0 0 0 0 0 0 0 0 0 0 0 0 0 0 0 0 0 0 0 0 0 0 0 0 0 0 0 0 0 0 0 0 0 0 0 0 0 0 0 0 0 0 0 0 0 0 0 0 0 0 0 0 0 0 0 0 0 0 0 0 0 0 0 0 0 0 29925 29925 29925 28565 28565 28565 27323 27323 28565 28565 28565 28565 27323 27323 27323 27323 27323 27323 27323 27323 28565 28565 28565 28565 29925 29925 29925 29925 29925 29925 29925 29925 29925 29925 29925 29925 29925 29925 29925 31421 31421 31421 33075 33075 33075 33075 33075 33075 33075 33075 28565 24170 24170 24170 24170 33075 33075 31421 31421 31421 29925 29925 28565 27323 27323 27323 27323 27323 26184 26184 25137 25137 25137 25137 25137 26184 26184 26184 26184 26184 27323 27323 27323 27323 27323 28565 28565 29925 29925 29925 29925 29925 28565 28565 27323 26184 26184 26184 26184 26184 26184 26184 26184 26184 26184 26184 26184 26184 26184 26184 26184 26184 26184 26184 26184 27323 27323 27323 27323 27323 27323 26184 26184 26184 26184 26184 26184 26184 26184 25137 25137 25137 25137 26184 26184 26184 27323 27323 27323 27323 27323 27323 26184 26184 26184 26184 25137 25137 24170 23275 22443 21670 21670 20947 20271 20271 20271 19638 19638 19638 19638 19638 19638 19638 19638 19638 19638 19638 19638 19638 19638 19638 19638 19638 19638 19638 19638 19638 19638 19638 19638 19638 19638 19638 19638 19638 19638 19638 19043 19043 19043 19043 18483 19043 18483 19043 18483 0 0 0 0 0 0 0 0 0 0 39276 39276 39276 39276 39276 39276 39276 39276 39276 39276 41895 41895 41895 41895 41895 41895 41895 41895 39276 39276 36966 36966 34912 34912 33075 33075 34912 33075 33075 33075 33075 33075 33075 33075 33075 33075 33075 33075 33075 33075 33075 27323 25137 24170 24170 24170 24170 24170 25137 26184 28565 29925 31421 31421 31421 31421 31421 31421 0 0 0 0 0 0 0 62843 41895 36966 34912 36966 33075 33075 33075 34912 31421 31421 31421 31421 31421 31421 31421 31421 31421 0 0 0 0 0 0 0 0 0 0 0 0 0 0 0 0 0 39276 39276 36966 34912 34912 33075 33075 31421 31421 31421 31421 33075 33075 33075 33075 31421 31421 31421 31421 31421 33075 33075 33075 33075 33075 34912 34912 34912 34912 36966 36966 36966 36966 34912 34912 34912 34912 33075 33075 33075 33075 34912 34912 34912 34912 34912 34912 36966 39276 39276 39276 39276 39276 57130 65535 65535 65535 65535 65535 65535 65535 65535 65535 65535 65535 65535 65535 65535 65535 65535 65535 65535 65535 65535 65535 65535 65535 65535 65535 65535 65535 65535 65535 65535 65535 65535 65535 65535 65535 65535 65535 65535 65535 65535 65535 65535 65535 65535 65535 65535 65535 65535 65535 65535 65535 65535 65535 65535 65535 65535 65535 65535 65535 65535 65535 65535 65535
    0 0 0 0 0 0 0 0 0 0 0 0 0 0 0 0 0 0 0 0 0 0 0 0 0 0 0 0 0 0 0 0 0 0 0 0 0 0 0 0 0 0 0 0 0 0 0 0 0 0 0 0 0 0 0 0 0 0 0 0 0 0 0 0 0 0 0 0 0 0 0 0 0 0 0 0 0 28565 28565 28565 28565 28565 28565 28565 0 0 0 0 29925 29925 29925 29925 29925 29925 28565 28565 28565 28565 28565 28565 28565 28565 27323 27323 27323 27323 28565 28565 28565 28565 29925 29925 29925 29925 31421 31421 31421 31421 31421 31421 31421 31421 31421 31421 31421 31421 31421 31421 31421 31421 33075 33075 33075 33075 33075 33075 33075 33075 33075 33075 33075 33075 33075 33075 33075 31421 31421 31421 29925 28565 28565 27323 27323 27323 27323 27323 27323 26184 25137 25137 25137 26184 26184 26184 26184 26184 26184 26184 27323 27323 27323 27323 28565 28565 29925 31421 31421 31421 31421 29925 29925 28565 28565 27323 27323 27323 26184 26184 26184 26184 26184 26184 26184 26184 26184 26184 26184 26184 26184 26184 26184 27323 27323 27323 27323 27323 27323 27323 27323 27323 27323 27323 27323 27323 27323 27323 26184 26184 26184 26184 26184 26184 26184 27323 27323 27323 27323 27323 27323 27323 27323 27323 27323 26184 26184 25137 24170 23275 22443 21670 20947 20947 20271 20271 20271 19638 19638 19638 19638 19638 19638 19638 19638 19638 19638 19638 19638 19638 19638 19638 19638 19638 20271 20271 20271 20271 20271 20271 20271 20271 20271 20271 19638 19638 19638 19638 19638 19043 19043 19043 18483 18483 18483 19043 18483 0 0 0 0 0 0 0 0 0 0 0 39276 39276 39276 39276 39276 39276 39276 39276 39276 39276 39276 41895 41895 41895 41895 41895 41895 41895 39276 39276 36966 36966 36966 34912 34912 34912 34912 34912 34912 34912 34912 34912 34912 34912 34912 34912 34912 34912 34912 34912 27323 25137 24170 24170 24170 24170 24170 25137 26184 27323 29925 31421 31421 31421 31421 31421 31421 0 0 0 0 0 0 62843 62843 44887 41895 39276 36966 34912 33075 33075 33075 31421 31421 31421 31421 31421 31421 31421 31421 31421 0 0 0 0 0 0 0 0 0 0 0 0 0 0 0 41895 41895 41895 39276 36966 36966 34912 34912 33075 33075 33075 33075 33075 33075 33075 33075 33075 33075 33075 33075 33075 33075 33075 33075 33075 33075 33075 33075 33075 33075 34912 34912 34912 34912 34912 34912 33075 33075 33075 33075 33075 33075 33075 33075 33075 33075 34912 34912 34912 34912 36966 39276 39276 39276 39276 57130 65535 65535 65535 65535 65535 65535 65535 65535 65535 65535 65535 65535 65535 65535 65535 65535 65535 65535 65535 65535 65535 65535 65535 65535 65535 65535 65535 65535 65535 65535 65535 65535 65535 65535 65535 65535 65535 65535 65535 65535 65535 65535 65535 65535 65535 65535 65535 65535 65535 65535 65535 65535 65535 65535 65535 65535 65535 65535 65535 65535 65535 65535 65535
    0 0 0 0 0 0 0 0 0 0 0 0 0 0 0 0 0 0 0 0 0 0 0 0 0 0 0 0 0 0 0 0 0 0 0 0 0 0 0 0 0 0 0 0 0 0 0 0 0 0 0 0 0 0 0 0 0 0 0 0 0 0 0 0 0 0 0 0 0 0 0 0 0 0 0 0 28565 28565 28565 28565 28565 28565 28565 28565 28565 28565 28565 28565 29925 29925 29925 29925 29925 29925 29925 28565 28565 28565 28565 28565 28565 28565 28565 28565 28565 28565 28565 28565 28565 29925 29925 29925 31421 31421 31421 31421 31421 31421 31421 31421 31421 31421 31421 31421 31421 31421 31421 31421 31421 33075 33075 33075 33075 33075 33075 33075 33075 33075 33075 33075 33075 33075 33075 33075 33075 33075 31421 29925 29925 28565 28565 27323 28565 28565 28565 27323 27323 26184 25137 25137 26184 26184 27323 27323 27323 27323 26184 26184 26184 26184 27323 27323 28565 29925 31421 31421 33075 33075 33075 31421 31421 29925 29925 28565 28565 27323 27323 27323 27323 26184 26184 26184 26184 27323 27323 27323 27323 27323 27323 27323 27323 27323 27323 28565 28565 28565 28565 28565 28565 28565 27323 27323 27323 27323 27323 27323 27323 27323 27323 27323 27323 27323 27323 27323 27323 27323 28565 28565 28565 28565 28565 28565 27323 27323 26184 25137 25137 24170 22443 21670 20947 20947 20271 20271 20271 20271 19638 19638 19638 19638 19638 19638 19638 19638 19638 19638 19638 19638 19638 19638 20271 20271 20271 20271 20271 20271 20271 20271 20271 20271 20271 20271 20271 19638 20271 19638 19638 19638 19638 19638 19638 19638 19638 19043 18483 0 0 0 0 0 0 0 0 0 0 0 0 39276 39276 39276 39276 39276 39276 39276 39276 39276 39276 39276 41895 41895 41895 41895 41895 41895 41895 39276 39276 39276 36966 36966 36966 36966 36966 36966 36966 34912 36966 36966 36966 36966 36966 36966 34912 34912 34912 34912 27323 25137 25137 24170 24170 24170 24170 25137 26184 27323 29925 33075 33075 33075 33075 34912 36966 57130 57130 57130 0 0 0 62843 62843 52369 44887 44887 39276 36966 34912 33075 33075 31421 31421 31421 31421 31421 31421 31421 31421 0 65535 65535 62843 62843 57130 44887 44887 41895 41895 39276 41895 41895 41895 44887 44887 44887 41895 41895 39276 39276 36966 36966 34912 34912 34912 34912 34912 34912 34912 34912 34912 33075 33075 33075 33075 33075 33075 33075 33075 33075 33075 33075 33075 33075 33075 33075 33075 33075 33075 33075 33075 33075 33075 33075 33075 33075 33075 33075 33075 33075 33075 33075 33075 34912 36966 39276 44887 44887 41895 48340 65535 65535 65535 65535 65535 65535 65535 65535 65535 65535 65535 65535 65535 65535 65535 65535 65535 65535 65535 65535 65535 65535 65535 65535 65535 65535 65535 65535 65535 65535 65535 65535 65535 65535 65535 65535 65535 65535 65535 65535 65535 65535 65535 65535 65535 65535 65535 65535 65535 65535 65535 65535 65535 65535 65535 65535 65535 65535 65535 65535 65535 65535 65535 65535
    0 0 0 0 0 0 0 0 0 0 0 0 0 0 0 0 0 0 0 0 0 0 0 0 0 0 0 0 0 0 0 0 0 0 0 0 0 0 0 0 0 0 0 21670 21670 21670 21670 21670 20947 0 0 0 0 0 0 0 0 0 0 0 0 0 0 0 0 0 0 0 0 0 0 0 0 0 0 0 28565 28565 28565 28565 28565 28565 28565 28565 28565 28565 28565 28565 29925 29925 29925 29925 29925 29925 28565 28565 28565 28565 28565 28565 28565 28565 28565 28565 28565 28565 28565 28565 29925 29925 29925 31421 31421 31421 31421 31421 31421 31421 31421 31421 31421 31421 31421 31421 31421 31421 31421 31421 33075 33075 33075 33075 33075 33075 33075 33075 33075 33075 33075 33075 33075 33075 33075 33075 33075 33075 31421 31421 29925 28565 28565 28565 28565 28565 28565 28565 27323 26184 26184 26184 27323 27323 27323 27323 27323 27323 27323 26184 26184 26184 27323 28565 29925 29925 31421 33075 33075 33075 33075 33075 31421 31421 29925 29925 28565 28565 28565 27323 27323 27323 27323 27323 27323 27323 27323 27323 27323 27323 27323 27323 27323 28565 28565 29925 29925 29925 29925 29925 28565 28565 28565 28565 28565 28565 28565 28565 28565 28565 27323 27323 27323 28565 28565 28565 28565 28565 28565 28565 28565 28565 28565 28565 28565 27323 27323 26184 25137 24170 22443 21670 20947 20947 20271 20271 20271 20271 19638 19638 19638 19638 19638 19638 19638 19638 19638 19638 19638 19638 19638 20271 20271 20271 20271 20271 20271 20271 20271 20271 20271 20271 20271 20271 20271 20271 20271 20271 20271 20271 20271 20947 20271 20947 20271 20271 19638 0 0 0 0 0 0 0 0 0 0 0 0 0 39276 39276 39276 39276 39276 39276 39276 39276 39276 39276 39276 41895 41895 41895 41895 41895 41895 41895 39276 39276 39276 39276 39276 39276 36966 36966 36966 36966 36966 36966 36966 36966 36966 36966 36966 34912 34912 34912 27323 25137 25137 25137 24170 25137 25137 26184 27323 29925 31421 33075 33075 34912 34912 39276 44887 57130 57130 57130 0 0 0 62843 62843 52369 52369 48340 44887 39276 34912 33075 33075 31421 31421 31421 31421 31421 31421 0 0 39276 48340 48340 44887 44887 44887 41895 41895 41895 41895 39276 41895 41895 41895 41895 41895 41895 41895 41895 39276 39276 39276 36966 36966 36966 36966 36966 39276 39276 36966 36966 36966 34912 33075 33075 33075 33075 33075 33075 33075 33075 33075 33075 33075 31421 31421 31421 31421 31421 31421 33075 33075 33075 33075 33075 33075 33075 33075 33075 33075 33075 33075 33075 33075 34912 39276 41895 48340 48340 48340 62843 62843 65535 65535 65535 65535 65535 65535 65535 65535 65535 65535 65535 65535 65535 65535 65535 65535 65535 65535 65535 65535 65535 65535 65535 65535 65535 65535 65535 65535 65535 65535 65535 65535 65535 65535 65535 65535 65535 65535 65535 65535 65535 65535 65535 65535 65535 65535 65535 65535 65535 65535 65535 65535 65535 65535 65535 65535 65535 65535 65535 65535 65535 65535 65535
    0 0 0 0 0 0 0 0 0 0 0 0 0 0 0 0 0 0 0 0 0 0 0 0 0 0 0 0 0 0 0 0 0 0 0 0 0 0 0 0 0 0 21670 21670 21670 21670 21670 21670 20947 20947 0 0 0 0 0 0 0 0 0 0 0 0 0 0 0 0 0 0 0 0 0 0 0 0 0 0 28565 28565 28565 28565 28565 28565 28565 28565 28565 28565 28565 28565 29925 29925 29925 29925 29925 29925 28565 28565 28565 28565 28565 28565 28565 28565 28565 28565 28565 28565 28565 29925 29925 29925 31421 31421 31421 31421 31421 31421 31421 31421 31421 31421 31421 31421 31421 31421 31421 31421 31421 31421 33075 33075 33075 33075 33075 33075 33075 33075 33075 33075 33075 33075 33075 33075 33075 33075 33075 33075 31421 31421 29925 29925 29925 28565 28565 28565 28565 28565 28565 27323 27323 27323 27323 27323 27323 27323 27323 27323 27323 26184 26184 26184 27323 28565 29925 31421 33075 33075 33075 33075 33075 33075 33075 33075 31421 29925 29925 28565 28565 28565 28565 27323 27323 27323 27323 27323 27323 27323 27323 27323 27323 27323 27323 28565 28565 29925 29925 29925 29925 29925 29925 29925 29925 28565 28565 28565 28565 28565 28565 28565 28565 28565 28565 28565 28565 28565 28565 28565 28565 28565 29925 29925 29925 28565 28565 27323 27323 26184 26184 25137 23275 21670 20947 20947 20271 20271 20271 20271 19638 19638 19638 19638 19638 19638 19638 19638 19638 19638 19638 19638 20271 20271 20271 20271 20271 20271 20271 20271 20271 20271 20271 20271 20271 20271 20271 20271 20271 20271 20947 21670 21670 21670 21670 21670 21670 21670 20947 0 0 0 0 0 0 0 0 31421 31421 31421 31421 31421 31421 33075 36966 36966 36966 36966 39276 39276 39276 39276 39276 39276 41895 41895 41895 41895 41895 41895 41895 39276 39276 39276 39276 39276 39276 39276 39276 39276 39276 39276 39276 39276 36966 36966 36966 36966 36966 36966 27323 25137 25137 25137 25137 25137 26184 28565 29925 31421 33075 34912 34912 36966 39276 41895 48340 57130 57130 57130 0 0 0 62843 57130 57130 57130 57130 57130 52369 48340 31421 31421 31421 31421 31421 31421 0 0 39276 39276 39276 44887 41895 44887 41895 44887 41895 41895 41895 41895 39276 39276 39276 41895 41895 41895 41895 41895 41895 39276 39276 39276 39276 39276 39276 39276 39276 39276 39276 39276 39276 36966 36966 34912 33075 33075 33075 33075 33075 33075 33075 33075 33075 31421 31421 31421 31421 31421 31421 31421 31421 33075 33075 33075 33075 33075 33075 33075 33075 33075 33075 33075 33075 34912 36966 41895 44887 48340 48340 48340 62843 62843 65535 65535 65535 65535 65535 65535 65535 65535 65535 65535 65535 65535 65535 65535 65535 65535 65535 65535 65535 65535 65535 65535 65535 65535 65535 65535 65535 65535 65535 65535 65535 65535 65535 65535 65535 65535 65535 65535 65535 65535 65535 65535 65535 65535 65535 65535 65535 65535 65535 65535 65535 65535 65535 65535 65535 65535 65535 62843 65535 65535 65535 65535 65535
    0 0 0 0 0 0 0 0 0 0 0 0 0 0 0 0 0 0 0 0 0 0 0 0 0 0 0 0 0 0 0 0 0 65535 65535 65535 36966 28565 19638 19638 19638 20947 21670 21670 21670 21670 21670 21670 20947 20947 20947 0 0 0 0 0 0 0 0 0 0 21670 21670 21670 21670 21670 0 0 0 0 0 0 0 0 0 0 28565 28565 28565 28565 28565 28565 28565 28565 28565 28565 28565 27323 27323 27323 28565 28565 29925 29925 28565 28565 28565 28565 28565 28565 28565 28565 28565 28565 28565 29925 29925 29925 29925 31421 31421 31421 31421 31421 31421 31421 31421 31421 31421 31421 31421 31421 31421 31421 31421 31421 31421 31421 31421 33075 33075 33075 33075 33075 33075 33075 33075 33075 33075 33075 33075 33075 33075 33075 33075 33075 33075 31421 31421 31421 29925 29925 31421 31421 31421 31421 29925 28565 28565 27323 28565 28565 28565 28565 27323 27323 27323 27323 26184 26184 26184 29925 31421 31421 33075 33075 33075 33075 33075 33075 33075 31421 31421 29925 29925 29925 28565 28565 28565 28565 27323 27323 27323 27323 27323 27323 27323 27323 27323 27323 27323 28565 29925 29925 31421 31421 31421 31421 31421 29925 29925 28565 28565 28565 28565 28565 28565 28565 28565 28565 28565 28565 28565 28565 28565 28565 28565 28565 28565 28565 28565 28565 28565 27323 27323 26184 26184 25137 24170 22443 21670 20947 20271 20271 20271 20271 19638 19638 19638 19638 19638 19638 19638 19638 19638 19638 20271 20271 20271 20271 20271 20271 20271 20947 20947 20947 20947 20271 20271 20271 20271 20271 20271 20271 20271 20947 21670 22443 23275 23275 23275 23275 23275 22443 23275 0 0 0 0 0 0 0 31421 31421 31421 31421 31421 31421 31421 31421 33075 34912 36966 36966 36966 36966 39276 39276 39276 39276 41895 41895 41895 41895 41895 41895 41895 41895 39276 39276 39276 39276 39276 39276 39276 39276 39276 39276 39276 39276 39276 36966 36966 36966 36966 36966 25137 25137 25137 25137 25137 26184 28565 29925 31421 33075 34912 36966 34912 36966 41895 44887 52369 57130 57130 57130 57130 0 0 52369 48340 48340 48340 48340 48340 48340 48340 0 0 0 0 0 0 0 39276 39276 39276 39276 41895 41895 41895 41895 41895 41895 41895 41895 41895 39276 39276 39276 39276 41895 41895 41895 41895 41895 39276 39276 39276 39276 39276 39276 39276 41895 41895 41895 41895 39276 39276 36966 34912 34912 33075 33075 33075 33075 34912 33075 33075 31421 31421 31421 31421 31421 31421 31421 31421 31421 31421 31421 31421 31421 31421 33075 33075 33075 33075 33075 33075 34912 36966 39276 44887 44887 48340 48340 48340 57130 62843 65535 65535 65535 65535 65535 65535 65535 65535 65535 65535 65535 65535 65535 65535 65535 65535 65535 65535 65535 65535 65535 65535 65535 65535 65535 65535 65535 65535 65535 65535 65535 65535 65535 65535 65535 65535 65535 65535 65535 65535 65535 65535 65535 65535 65535 65535 65535 65535 65535 65535 65535 65535 65535 65535 65535 65535 65535 65535 65535 65535 65535 65535 65535
    0 0 0 0 0 0 0 0 0 0 0 0 0 0 0 0 0 0 0 0 0 0 0 0 0 0 0 0 0 0 0 0 0 65535 52369 36966 28565 26184 19638 20271 20271 20947 21670 21670 21670 21670 21670 21670 20947 20947 20947 20947 0 0 0 0 0 0 0 0 20947 21670 21670 21670 21670 21670 20947 0 0 0 0 0 0 0 0 0 28565 28565 28565 28565 28565 28565 28565 28565 28565 27323 27323 26184 26184 26184 27323 27323 28565 28565 28565 28565 28565 28565 28565 28565 28565 28565 28565 28565 28565 29925 29925 29925 29925 31421 31421 31421 31421 31421 31421 31421 31421 31421 31421 31421 31421 31421 31421 31421 31421 31421 31421 31421 31421 33075 33075 33075 33075 33075 33075 33075 33075 33075 33075 33075 33075 33075 33075 33075 33075 33075 33075 33075 31421 31421 31421 31421 31421 33075 33075 31421 31421 28565 28565 28565 28565 28565 28565 28565 28565 27323 27323 27323 26184 26184 26184 31421 31421 33075 33075 33075 33075 33075 33075 33075 31421 31421 29925 29925 29925 29925 29925 28565 28565 28565 27323 27323 27323 27323 27323 27323 27323 27323 27323 27323 27323 28565 29925 31421 33075 33075 33075 33075 33075 31421 29925 28565 28565 27323 27323 27323 27323 27323 27323 27323 27323 27323 27323 27323 27323 27323 27323 28565 28565 28565 28565 28565 27323 27323 26184 26184 26184 25137 24170 23275 21670 20947 20271 20271 20271 20271 19638 19638 19638 19638 19638 19638 19638 19638 19638 19638 20271 20271 20271 20271 20271 20271 20947 20947 20947 20947 20947 20271 20947 20947 20947 20947 20947 20947 20947 20947 22443 23275 23275 23275 23275 23275 23275 23275 24170 0 0 0 0 0 0 0 31421 31421 31421 31421 31421 31421 31421 31421 31421 33075 34912 36966 36966 36966 36966 39276 39276 39276 39276 39276 41895 41895 41895 41895 41895 41895 41895 41895 41895 41895 39276 39276 39276 39276 39276 39276 39276 39276 39276 36966 36966 36966 36966 36966 0 25137 25137 25137 25137 28565 31421 33075 34912 34912 36966 36966 36966 39276 41895 48340 57130 62843 62843 62843 57130 57130 41895 41895 41895 41895 41895 41895 41895 41895 34912 0 0 0 0 0 0 39276 39276 39276 39276 39276 41895 41895 41895 41895 41895 41895 41895 41895 41895 39276 39276 39276 39276 41895 41895 41895 41895 41895 39276 39276 39276 39276 39276 41895 41895 41895 44887 44887 44887 41895 39276 39276 36966 34912 34912 34912 34912 33075 33075 33075 33075 31421 31421 31421 31421 31421 31421 31421 31421 31421 31421 31421 31421 33075 33075 33075 34912 34912 36966 36966 36966 39276 41895 44887 44887 48340 48340 48340 48340 57130 62843 62843 65535 65535 65535 65535 65535 65535 65535 65535 65535 65535 65535 65535 65535 65535 65535 65535 65535 65535 65535 65535 65535 65535 65535 65535 65535 65535 65535 65535 65535 65535 65535 65535 65535 65535 65535 65535 65535 65535 65535 65535 65535 65535 65535 65535 65535 65535 65535 65535 65535 65535 65535 65535 65535 65535 65535 65535 65535 65535 65535 65535 65535 65535
    0 0 0 0 0 0 0 0 0 0 0 0 0 0 0 0 0 0 0 0 0 0 0 0 0 0 0 0 0 0 0 0 0 52369 31421 26184 24170 23275 19638 20271 20271 20947 21670 21670 21670 21670 21670 20947 20947 20947 20947 20947 20271 0 21670 21670 22443 22443 22443 22443 21670 21670 21670 21670 21670 21670 20947 0 0 0 0 0 0 0 0 0 0 28565 28565 28565 28565 28565 28565 28565 27323 26184 25137 25137 24170 25137 25137 26184 27323 28565 28565 28565 28565 28565 28565 28565 28565 28565 28565 28565 29925 29925 29925 29925 31421 31421 31421 31421 31421 31421 31421 31421 31421 31421 31421 31421 31421 31421 31421 31421 31421 31421 31421 31421 31421 33075 33075 33075 33075 34912 34912 34912 34912 33075 33075 33075 33075 33075 33075 33075 33075 33075 33075 33075 33075 33075 33075 33075 33075 33075 33075 31421 31421 29925 28565 28565 28565 28565 28565 28565 28565 28565 27323 27323 26184 26184 0 0 31421 33075 33075 33075 33075 33075 33075 31421 31421 29925 29925 29925 29925 29925 29925 28565 28565 28565 28565 27323 27323 27323 27323 27323 27323 27323 27323 26184 26184 27323 28565 29925 31421 33075 33075 33075 31421 31421 29925 28565 27323 27323 27323 27323 27323 26184 26184 26184 26184 27323 27323 27323 27323 27323 27323 27323 27323 27323 27323 27323 26184 26184 26184 26184 25137 25137 25137 24170 21670 20271 20271 20271 20271 20271 19638 19638 19638 19638 19638 19638 19638 19638 19638 19638 20271 20271 20271 20271 20271 20947 20947 20947 20947 20947 20947 20271 20947 20947 20947 20947 20947 20947 20947 21670 23275 23275 24170 24170 24170 24170 24170 24170 24170 0 0 0 27323 27323 28565 28565 29925 31421 31421 31421 31421 31421 31421 29925 29925 29925 31421 33075 34912 36966 36966 39276 39276 39276 39276 39276 39276 39276 39276 39276 41895 41895 41895 41895 41895 41895 41895 41895 41895 41895 41895 41895 41895 41895 41895 39276 39276 39276 39276 36966 0 0 0 0 0 34912 34912 36966 36966 36966 36966 36966 36966 39276 44887 48340 57130 62843 62843 62843 57130 57130 48340 41895 39276 39276 39276 36966 36966 36966 34912 0 0 0 0 0 0 39276 39276 39276 41895 41895 41895 41895 41895 41895 41895 41895 41895 41895 39276 39276 39276 39276 39276 39276 39276 39276 39276 39276 39276 39276 39276 39276 41895 41895 41895 44887 44887 44887 44887 41895 41895 39276 36966 36966 34912 34912 34912 33075 33075 33075 33075 31421 31421 31421 31421 31421 31421 33075 33075 33075 33075 31421 31421 33075 33075 34912 36966 39276 39276 39276 41895 41895 44887 44887 48340 48340 48340 48340 48340 57130 62843 62843 62843 65535 65535 65535 65535 65535 65535 65535 65535 65535 65535 65535 65535 65535 65535 65535 65535 65535 65535 65535 65535 65535 65535 65535 65535 65535 65535 65535 65535 65535 65535 65535 65535 65535 65535 65535 65535 65535 65535 65535 65535 65535 65535 65535 65535 65535 65535 65535 65535 65535 65535 65535 65535 65535 65535 65535 65535 65535 65535 65535 65535 65535
    0 0 0 0 0 0 0 0 0 0 0 0 0 0 0 0 0 0 0 0 0 0 0 0 0 0 0 0 0 0 0 0 0 36966 26184 24170 22443 21670 19638 19638 20271 20947 20947 21670 21670 21670 21670 20947 20947 20947 20947 20271 20271 19638 21670 22443 22443 22443 22443 22443 22443 21670 21670 21670 21670 21670 20947 0 0 0 0 0 0 0 0 0 0 0 28565 28565 28565 28565 28565 28565 27323 25137 24170 24170 24170 24170 24170 25137 27323 28565 28565 28565 28565 28565 28565 28565 28565 28565 28565 28565 29925 29925 29925 29925 31421 31421 31421 31421 31421 31421 31421 31421 31421 31421 31421 31421 31421 31421 31421 31421 31421 31421 31421 31421 31421 33075 33075 33075 33075 34912 34912 34912 34912 34912 34912 34912 33075 33075 33075 33075 34912 34912 34912 34912 34912 34912 34912 33075 33075 33075 33075 33075 31421 29925 28565 28565 29925 29925 29925 31421 31421 31421 31421 31421 33075 34912 34912 34912 34912 34912 34912 34912 34912 34912 33075 31421 31421 31421 29925 29925 29925 29925 29925 29925 28565 28565 28565 28565 27323 27323 27323 27323 27323 26184 26184 26184 26184 26184 26184 27323 28565 29925 31421 29925 29925 29925 28565 27323 27323 26184 26184 26184 26184 26184 25137 25137 26184 26184 26184 26184 26184 26184 26184 26184 26184 26184 26184 26184 26184 25137 25137 25137 25137 25137 25137 24170 21670 20271 20271 20271 20271 19638 19638 19638 19638 19638 19638 19638 19638 19638 19638 20271 20271 20271 20271 20271 20947 20947 20947 20947 20947 20947 20947 20271 20271 20947 20947 20947 21670 21670 22443 25137 25137 24170 25137 25137 25137 25137 25137 25137 25137 0 0 0 27323 27323 28565 28565 29925 29925 31421 31421 31421 31421 31421 29925 29925 29925 29925 31421 33075 34912 36966 39276 39276 39276 39276 39276 39276 39276 39276 39276 39276 41895 41895 41895 41895 41895 41895 41895 41895 41895 44887 44887 44887 44887 44887 44887 44887 44887 44887 44887 48340 48340 0 31421 31421 34912 34912 34912 36966 36966 39276 39276 39276 41895 44887 52369 57130 62843 62843 57130 57130 57130 48340 44887 41895 39276 39276 36966 36966 34912 34912 0 0 0 0 0 0 39276 41895 41895 41895 41895 41895 41895 41895 41895 41895 41895 41895 41895 41895 41895 39276 39276 39276 39276 39276 39276 39276 39276 39276 39276 41895 41895 41895 41895 41895 44887 44887 44887 44887 44887 41895 41895 39276 36966 36966 34912 34912 33075 33075 33075 33075 31421 31421 31421 33075 33075 33075 33075 33075 33075 33075 33075 33075 33075 34912 36966 39276 41895 44887 44887 44887 44887 48340 48340 48340 48340 48340 44887 44887 52369 62843 62843 62843 62843 62843 62843 62843 62843 62843 65535 65535 65535 65535 65535 65535 65535 65535 65535 65535 65535 65535 65535 65535 65535 65535 65535 65535 65535 65535 65535 65535 65535 65535 65535 65535 65535 65535 65535 65535 65535 65535 65535 65535 65535 65535 65535 65535 65535 65535 65535 65535 65535 65535 65535 65535 65535 65535 65535 65535 65535 65535 65535 65535 65535
    0 0 0 0 0 0 0 0 0 0 0 0 0 0 0 0 0 0 0 0 0 0 0 0 0 0 0 0 0 0 0 0 0 29925 24170 22443 21670 20947 19638 19638 20271 20271 20947 20947 21670 21670 20947 20947 20947 20947 20947 20271 20271 20271 20947 21670 22443 22443 22443 22443 22443 21670 21670 21670 21670 21670 20947 0 0 0 0 0 0 0 0 0 0 0 0 0 0 0 0 0 24170 22443 22443 22443 22443 22443 23275 23275 25137 28565 0 29925 29925 29925 28565 28565 28565 28565 28565 29925 29925 29925 29925 31421 31421 31421 31421 31421 31421 31421 31421 31421 31421 31421 31421 31421 31421 31421 31421 31421 29925 29925 29925 29925 31421 33075 33075 33075 34912 34912 34912 34912 34912 34912 34912 34912 33075 33075 33075 33075 34912 34912 34912 34912 34912 34912 34912 34912 33075 33075 33075 33075 31421 29925 29925 29925 29925 31421 31421 33075 33075 33075 33075 33075 34912 34912 34912 34912 34912 34912 34912 34912 34912 34912 33075 31421 31421 31421 31421 31421 31421 29925 29925 29925 28565 28565 28565 28565 28565 27323 27323 27323 27323 26184 26184 26184 26184 26184 26184 27323 28565 28565 29925 28565 28565 28565 27323 26184 26184 26184 26184 26184 25137 25137 25137 25137 25137 25137 25137 25137 25137 25137 25137 25137 25137 25137 25137 25137 25137 25137 25137 25137 25137 25137 25137 23275 20947 20271 20271 20271 20271 19638 19638 19638 19638 19638 19638 19638 19638 19638 20271 20271 20271 20271 20271 20271 20947 20947 20947 20947 20947 20271 20271 20271 20271 20947 20947 21670 22443 24170 25137 26184 26184 26184 26184 26184 26184 26184 26184 26184 26184 26184 0 0 27323 27323 28565 28565 29925 29925 29925 29925 31421 31421 29925 29925 29925 29925 29925 29925 29925 31421 34912 39276 39276 39276 36966 36966 36966 36966 36966 39276 39276 41895 41895 41895 41895 41895 41895 44887 44887 44887 44887 44887 44887 44887 44887 44887 48340 48340 48340 48340 48340 48340 48340 36966 39276 39276 39276 39276 39276 39276 41895 41895 41895 41895 44887 57130 57130 62843 62843 57130 57130 52369 48340 44887 41895 39276 39276 39276 36966 34912 34912 0 0 0 0 0 0 41895 41895 41895 41895 41895 41895 41895 41895 41895 41895 41895 41895 41895 41895 41895 41895 41895 39276 39276 39276 39276 39276 39276 39276 39276 41895 41895 41895 41895 41895 44887 44887 44887 44887 44887 41895 41895 39276 39276 36966 36966 34912 34912 33075 33075 33075 33075 33075 33075 33075 33075 33075 33075 33075 33075 33075 33075 33075 33075 34912 39276 41895 44887 44887 48340 44887 44887 44887 44887 44887 44887 44887 44887 44887 52369 62843 62843 62843 62843 62843 62843 62843 62843 65535 65535 65535 65535 65535 65535 65535 65535 65535 65535 65535 65535 65535 65535 65535 65535 65535 65535 65535 65535 65535 65535 65535 65535 65535 65535 65535 65535 65535 65535 65535 65535 65535 65535 65535 65535 65535 65535 65535 65535 65535 65535 65535 65535 65535 65535 65535 65535 65535 65535 65535 65535 65535 65535 65535 65535
    0 0 0 0 0 0 0 0 0 0 0 0 0 0 0 0 0 0 0 0 0 0 0 0 0 0 0 0 0 0 0 0 0 23275 20947 20271 19638 19638 19043 19638 20271 20271 20947 20947 20947 20947 20947 20947 20947 20947 20947 20271 20271 20271 20947 21670 22443 22443 22443 22443 22443 22443 21670 21670 21670 21670 20947 0 0 0 0 0 0 0 0 0 0 0 0 0 0 0 0 0 21670 21670 21670 21670 21670 21670 21670 21670 21670 0 0 29925 29925 29925 29925 29925 29925 29925 29925 29925 29925 29925 29925 31421 31421 31421 31421 31421 31421 31421 31421 31421 31421 31421 31421 33075 33075 31421 31421 31421 29925 29925 29925 29925 31421 33075 34912 34912 34912 34912 34912 34912 34912 34912 34912 34912 33075 33075 33075 33075 34912 34912 34912 34912 34912 34912 34912 34912 33075 33075 33075 33075 33075 31421 31421 31421 31421 33075 33075 34912 34912 34912 34912 34912 34912 34912 34912 34912 34912 34912 34912 34912 34912 34912 34912 33075 33075 33075 33075 33075 33075 31421 29925 29925 28565 28565 28565 28565 28565 28565 27323 27323 27323 26184 26184 26184 26184 26184 26184 27323 27323 28565 28565 28565 27323 27323 27323 26184 26184 26184 25137 25137 25137 25137 24170 24170 24170 24170 24170 24170 24170 24170 24170 24170 24170 25137 24170 24170 24170 24170 24170 24170 24170 24170 23275 22443 20947 20271 20271 20271 20271 20271 20271 20271 20271 19638 19638 19638 20271 20271 20271 20271 20271 20271 20271 20271 20947 20947 20947 20947 20271 20271 20271 20271 20271 20947 21670 22443 24170 25137 25137 26184 26184 26184 26184 27323 27323 27323 27323 26184 26184 26184 0 0 27323 27323 28565 28565 28565 28565 29925 29925 29925 29925 29925 29925 29925 29925 29925 29925 29925 29925 31421 36966 36966 36966 36966 36966 36966 36966 36966 36966 39276 39276 41895 41895 41895 41895 44887 44887 44887 44887 48340 48340 48340 48340 48340 48340 48340 48340 48340 48340 44887 44887 41895 39276 41895 41895 41895 41895 41895 41895 44887 44887 44887 44887 52369 62843 62843 57130 57130 57130 57130 52369 48340 48340 44887 41895 41895 39276 36966 34912 34912 0 0 0 41895 41895 41895 41895 41895 41895 41895 41895 41895 41895 41895 44887 44887 44887 44887 41895 41895 41895 41895 41895 41895 39276 39276 39276 39276 39276 39276 39276 41895 41895 41895 41895 41895 44887 44887 44887 44887 44887 41895 41895 41895 39276 36966 36966 34912 34912 33075 33075 33075 33075 33075 33075 34912 34912 34912 34912 34912 34912 33075 33075 33075 33075 36966 41895 44887 48340 48340 44887 44887 44887 44887 44887 44887 44887 44887 44887 44887 62843 62843 62843 62843 62843 62843 62843 62843 65535 65535 65535 65535 65535 65535 65535 65535 65535 65535 65535 65535 65535 65535 65535 65535 65535 65535 65535 65535 65535 65535 65535 65535 65535 65535 65535 65535 65535 65535 65535 65535 65535 65535 65535 65535 65535 65535 65535 65535 65535 65535 65535 65535 65535 65535 65535 65535 65535 65535 65535 65535 65535 65535 65535 65535 65535
    0 0 0 0 0 0 0 0 0 0 0 0 0 0 0 0 0 0 0 0 0 0 0 0 0 0 0 0 0 0 0 0 0 18483 18483 18483 18483 19043 19043 19638 19638 20271 20271 20947 20947 20947 20947 20947 20947 20947 20947 20271 20271 20271 20271 20947 21670 22443 22443 22443 22443 22443 22443 22443 21670 21670 21670 0 0 0 0 0 0 0 0 0 0 0 0 0 0 0 0 0 21670 21670 21670 21670 21670 21670 21670 21670 21670 0 0 29925 29925 29925 29925 29925 29925 29925 29925 29925 29925 31421 31421 31421 31421 31421 31421 31421 31421 33075 33075 33075 33075 33075 31421 33075 33075 31421 31421 29925 28565 28565 28565 29925 31421 34912 34912 34912 34912 34912 34912 34912 34912 34912 34912 34912 33075 33075 33075 33075 34912 34912 34912 34912 34912 34912 34912 34912 33075 33075 33075 34912 34912 33075 33075 33075 33075 33075 34912 34912 34912 34912 34912 34912 34912 34912 34912 34912 34912 34912 34912 34912 34912 34912 34912 34912 34912 34912 34912 34912 34912 31421 29925 29925 28565 28565 28565 28565 28565 28565 27323 27323 27323 26184 26184 26184 26184 26184 26184 26184 27323 27323 27323 27323 26184 26184 26184 25137 25137 25137 25137 25137 24170 24170 24170 24170 24170 23275 23275 23275 23275 23275 23275 23275 23275 23275 24170 23275 23275 23275 23275 23275 22443 22443 21670 20947 20271 20271 20271 20271 20271 20271 20271 20271 20271 20271 20271 20271 20271 20271 20271 20271 20271 20271 20271 20271 20271 20271 20271 20271 20271 20271 20271 20271 20271 20947 21670 23275 25137 25137 25137 26184 26184 26184 26184 27323 27323 27323 27323 26184 26184 26184 0 0 27323 27323 28565 28565 28565 28565 28565 28565 28565 29925 29925 29925 29925 29925 29925 29925 29925 29925 29925 33075 34912 34912 34912 34912 34912 36966 36966 36966 39276 39276 39276 41895 41895 41895 44887 44887 44887 48340 48340 48340 48340 48340 48340 48340 48340 48340 48340 44887 44887 41895 41895 41895 41895 41895 41895 41895 44887 44887 44887 44887 48340 48340 52369 57130 57130 57130 57130 57130 52369 52369 52369 48340 48340 44887 44887 41895 39276 34912 0 0 39276 39276 41895 41895 41895 41895 41895 41895 41895 41895 41895 41895 41895 44887 44887 44887 44887 44887 41895 41895 41895 41895 41895 39276 39276 39276 39276 39276 39276 39276 41895 41895 41895 41895 41895 41895 41895 41895 41895 41895 41895 41895 41895 39276 39276 36966 36966 34912 34912 33075 33075 33075 33075 34912 34912 34912 34912 34912 34912 34912 34912 34912 34912 34912 39276 41895 44887 48340 44887 44887 44887 44887 44887 44887 44887 44887 44887 44887 0 62843 62843 62843 62843 62843 62843 62843 62843 65535 65535 65535 65535 65535 65535 65535 65535 65535 65535 65535 65535 65535 65535 65535 65535 65535 65535 65535 65535 65535 65535 65535 65535 65535 65535 65535 65535 65535 65535 65535 65535 65535 65535 65535 65535 65535 65535 65535 65535 65535 65535 65535 65535 65535 65535 65535 65535 65535 65535 65535 65535 65535 65535 65535 65535 65535
    0 0 0 0 0 0 0 0 0 0 0 0 0 0 0 0 0 0 0 0 0 0 0 0 0 0 0 0 0 0 0 0 0 18483 18483 18483 18483 19043 19043 19043 19638 19638 20271 20271 20947 20947 20947 20947 20947 20947 20271 20271 20271 20271 20271 20947 21670 22443 22443 23275 23275 22443 22443 22443 22443 22443 23275 23275 0 0 0 0 0 0 0 0 0 0 0 0 0 0 0 0 0 21670 21670 21670 21670 21670 21670 21670 0 0 0 29925 29925 29925 29925 29925 29925 29925 29925 29925 31421 31421 31421 31421 31421 31421 31421 31421 31421 33075 31421 31421 31421 31421 29925 29925 29925 29925 29925 28565 27323 28565 28565 28565 31421 34912 34912 34912 34912 34912 34912 34912 34912 34912 34912 34912 34912 34912 33075 33075 34912 34912 34912 34912 34912 34912 34912 33075 33075 33075 34912 34912 34912 34912 34912 34912 34912 34912 34912 34912 34912 34912 34912 34912 34912 34912 34912 34912 34912 34912 34912 34912 34912 34912 34912 34912 34912 34912 34912 34912 34912 33075 31421 29925 29925 28565 28565 28565 28565 28565 27323 27323 27323 26184 26184 26184 26184 26184 26184 26184 26184 26184 26184 26184 25137 25137 25137 25137 25137 24170 24170 24170 24170 24170 23275 23275 23275 23275 22443 22443 22443 21670 22443 22443 22443 23275 23275 23275 23275 22443 22443 22443 21670 21670 20947 20947 20947 20271 20271 20271 20271 20271 20271 20271 20271 20271 20271 20271 20271 20271 20271 20271 20271 20271 20271 20271 20947 20947 20947 20947 20947 20271 20271 20271 20271 21670 23275 24170 25137 25137 26184 26184 26184 26184 26184 26184 26184 26184 26184 26184 26184 26184 0 0 0 0 28565 28565 28565 28565 28565 28565 28565 28565 29925 29925 29925 29925 29925 29925 28565 29925 29925 31421 31421 33075 33075 33075 34912 36966 36966 36966 39276 39276 39276 39276 41895 41895 41895 44887 44887 44887 44887 44887 44887 44887 44887 44887 44887 44887 44887 44887 44887 41895 41895 41895 41895 41895 41895 44887 44887 44887 44887 44887 44887 48340 52369 52369 57130 57130 52369 52369 52369 52369 52369 52369 52369 52369 48340 48340 48340 0 0 39276 39276 39276 41895 41895 41895 41895 41895 41895 41895 41895 41895 41895 41895 41895 44887 44887 44887 41895 41895 41895 41895 41895 41895 39276 39276 39276 39276 39276 39276 39276 41895 41895 41895 41895 41895 41895 41895 41895 41895 41895 41895 41895 41895 39276 39276 36966 36966 36966 34912 34912 34912 34912 34912 34912 34912 34912 34912 34912 36966 36966 36966 36966 36966 36966 39276 41895 44887 44887 44887 44887 44887 44887 44887 44887 44887 44887 44887 0 0 62843 62843 62843 62843 62843 62843 62843 62843 65535 65535 65535 65535 65535 65535 65535 65535 65535 65535 65535 65535 65535 65535 65535 65535 65535 65535 65535 65535 65535 65535 65535 65535 65535 65535 65535 65535 65535 65535 65535 65535 65535 65535 65535 65535 65535 65535 65535 65535 65535 65535 65535 65535 65535 65535 65535 65535 65535 65535 65535 65535 65535 65535 65535 65535 65535
    0 0 0 0 0 0 0 0 0 0 0 0 0 0 0 0 0 0 0 0 0 0 0 0 0 0 0 0 0 0 0 0 0 17955 18483 18483 19043 19043 19043 19043 19638 19638 19638 20271 20271 20271 20947 20947 20947 20947 20271 20271 20271 20271 20271 20271 20947 21670 22443 23275 23275 23275 23275 22443 22443 23275 23275 23275 0 0 0 0 0 0 0 0 0 0 0 0 0 0 0 0 0 0 0 0 0 0 0 0 0 0 0 29925 29925 29925 29925 29925 29925 29925 29925 31421 31421 31421 31421 29925 29925 29925 29925 29925 29925 31421 29925 29925 29925 28565 28565 28565 28565 28565 27323 27323 26184 27323 28565 28565 31421 34912 36966 36966 36966 36966 36966 36966 34912 34912 34912 34912 34912 34912 33075 33075 33075 33075 33075 33075 33075 33075 33075 33075 33075 33075 34912 34912 34912 34912 34912 34912 34912 34912 34912 34912 34912 34912 34912 34912 34912 34912 34912 34912 34912 34912 34912 34912 34912 34912 34912 34912 34912 34912 34912 34912 34912 34912 33075 31421 29925 29925 29925 29925 28565 28565 27323 27323 26184 26184 26184 25137 25137 25137 25137 25137 26184 26184 25137 25137 25137 24170 24170 24170 24170 24170 24170 24170 23275 23275 23275 22443 22443 21670 21670 21670 20947 20947 21670 21670 21670 22443 22443 22443 22443 22443 22443 21670 21670 21670 20947 20947 20947 20947 20271 20271 20271 20271 20947 20947 20947 20947 20947 20947 20271 20271 20271 20271 20947 20947 20947 20947 20947 20947 20947 20947 20947 20947 20271 20271 20271 21670 23275 25137 25137 26184 26184 26184 26184 26184 27323 27323 27323 26184 26184 26184 26184 26184 0 0 0 0 28565 28565 28565 28565 28565 27323 28565 28565 28565 29925 29925 29925 29925 29925 28565 29925 29925 29925 29925 31421 31421 33075 33075 34912 36966 36966 39276 39276 39276 39276 41895 41895 41895 41895 44887 44887 44887 44887 44887 41895 41895 41895 44887 44887 44887 41895 41895 41895 41895 41895 41895 44887 44887 44887 44887 44887 44887 44887 44887 44887 48340 48340 52369 52369 52369 52369 52369 52369 52369 52369 52369 57130 57130 57130 57130 0 0 39276 39276 39276 41895 41895 41895 41895 41895 41895 41895 41895 41895 41895 41895 41895 41895 41895 41895 41895 41895 41895 41895 41895 41895 39276 39276 39276 39276 39276 39276 39276 41895 41895 41895 41895 41895 41895 41895 41895 41895 41895 41895 41895 39276 39276 39276 39276 36966 36966 36966 34912 34912 34912 34912 34912 34912 34912 36966 36966 36966 36966 36966 36966 36966 36966 36966 36966 39276 41895 44887 44887 44887 44887 41895 44887 44887 44887 0 0 0 62843 62843 62843 62843 62843 62843 62843 65535 65535 65535 65535 65535 65535 65535 65535 65535 65535 65535 65535 65535 65535 65535 65535 65535 65535 65535 65535 65535 65535 65535 65535 65535 65535 65535 65535 65535 65535 65535 65535 65535 65535 65535 65535 65535 65535 65535 65535 65535 65535 65535 65535 65535 65535 65535 65535 65535 65535 65535 65535 65535 65535 65535 65535 65535 65535
    0 0 0 0 0 0 0 0 0 0 0 0 0 0 0 0 0 0 0 0 0 0 0 0 0 0 0 0 0 0 0 0 0 18483 19043 19043 19043 19043 19638 19638 19638 19638 19638 19638 20271 20271 20271 20271 20271 20271 20271 20271 20271 20271 20271 20271 20947 21670 22443 23275 23275 23275 23275 23275 23275 23275 23275 23275 0 0 0 0 0 0 0 0 0 0 0 0 0 0 0 0 0 0 0 0 0 0 0 0 0 0 0 0 29925 29925 29925 29925 29925 29925 29925 31421 31421 31421 31421 29925 29925 28565 28565 28565 29925 29925 28565 28565 28565 27323 27323 27323 27323 26184 26184 26184 25137 26184 27323 28565 29925 34912 34912 36966 36966 36966 36966 36966 34912 34912 34912 34912 34912 34912 33075 33075 31421 33075 33075 33075 33075 33075 33075 33075 33075 33075 33075 34912 34912 34912 34912 34912 34912 34912 34912 34912 34912 34912 34912 34912 34912 34912 34912 34912 34912 34912 34912 34912 34912 34912 34912 34912 34912 36966 36966 36966 36966 34912 34912 33075 31421 29925 29925 29925 28565 28565 27323 27323 26184 26184 25137 25137 25137 25137 25137 25137 25137 25137 25137 24170 24170 24170 23275 23275 23275 23275 24170 24170 23275 23275 22443 22443 21670 20947 20947 20947 20947 20947 20947 20947 21670 21670 21670 21670 21670 21670 21670 21670 21670 21670 21670 21670 21670 20947 20947 20947 20947 20947 20947 21670 21670 21670 21670 21670 20947 20947 20947 20947 20947 20947 20947 20947 20947 20947 20947 20947 20947 20947 20947 20947 20947 23275 24170 25137 25137 26184 26184 27323 27323 27323 27323 27323 27323 26184 26184 26184 26184 26184 0 0 0 0 28565 28565 28565 28565 28565 28565 28565 28565 28565 29925 29925 29925 29925 29925 28565 29925 29925 29925 29925 29925 29925 31421 33075 34912 36966 36966 39276 39276 39276 39276 41895 41895 41895 41895 41895 41895 41895 41895 41895 41895 39276 41895 41895 41895 41895 41895 41895 41895 41895 41895 41895 41895 44887 41895 41895 41895 41895 41895 41895 44887 44887 48340 52369 52369 52369 52369 52369 52369 52369 57130 57130 57130 62843 62843 62843 0 0 39276 39276 41895 44887 44887 44887 48340 48340 44887 44887 44887 41895 41895 41895 41895 41895 41895 41895 41895 41895 41895 41895 41895 39276 39276 39276 39276 39276 39276 39276 39276 39276 41895 41895 41895 41895 41895 41895 41895 41895 41895 41895 41895 39276 39276 39276 39276 39276 36966 36966 36966 34912 34912 34912 34912 34912 36966 36966 36966 36966 36966 36966 36966 36966 36966 36966 36966 36966 39276 41895 41895 41895 41895 41895 41895 41895 0 0 0 0 62843 62843 62843 65535 65535 65535 65535 65535 65535 65535 65535 65535 65535 65535 65535 65535 65535 65535 65535 65535 65535 65535 65535 65535 65535 65535 65535 65535 65535 65535 65535 65535 65535 65535 65535 65535 65535 65535 65535 65535 65535 65535 65535 65535 65535 65535 65535 65535 65535 65535 65535 65535 65535 65535 65535 65535 65535 65535 65535 65535 65535 65535 65535 65535 65535
    0 0 0 0 0 0 0 0 0 0 0 0 0 0 0 0 0 0 0 0 0 0 0 0 0 0 0 0 0 0 0 0 19638 19638 19638 19638 19638 19638 19638 19638 19638 19638 19638 19638 19638 20271 20271 20271 20271 20271 20271 20271 20271 20271 20271 20947 21670 22443 23275 23275 24170 23275 23275 23275 23275 23275 23275 23275 0 0 0 0 0 0 0 0 0 0 0 0 0 0 0 0 0 0 0 0 0 0 0 0 0 0 0 0 29925 29925 29925 29925 29925 0 29925 31421 31421 31421 29925 29925 28565 28565 28565 28565 28565 28565 27323 27323 26184 26184 26184 26184 26184 26184 25137 25137 25137 26184 27323 28565 29925 33075 34912 36966 36966 36966 36966 36966 34912 34912 34912 34912 34912 34912 33075 31421 31421 31421 31421 31421 33075 33075 33075 33075 33075 33075 33075 34912 34912 34912 34912 34912 34912 34912 34912 34912 34912 34912 34912 34912 34912 34912 34912 34912 34912 34912 34912 34912 34912 34912 34912 34912 34912 36966 36966 36966 36966 36966 34912 33075 33075 31421 31421 29925 28565 28565 27323 26184 26184 25137 25137 24170 24170 24170 24170 24170 24170 24170 24170 24170 23275 23275 23275 23275 23275 23275 23275 23275 23275 23275 22443 21670 20947 20271 20947 20947 20947 20947 20947 20947 21670 21670 21670 21670 21670 21670 21670 21670 21670 21670 21670 21670 22443 22443 22443 22443 22443 21670 21670 22443 22443 22443 22443 22443 21670 21670 20947 20947 20947 20947 20947 20947 20947 20947 20947 20947 20947 20947 20947 20947 20947 24170 24170 25137 25137 26184 26184 27323 27323 27323 27323 27323 27323 26184 26184 26184 26184 0 0 0 0 0 28565 28565 28565 28565 28565 28565 28565 28565 28565 28565 29925 29925 29925 29925 28565 29925 29925 29925 29925 29925 29925 29925 31421 33075 34912 36966 39276 39276 39276 39276 39276 39276 41895 41895 41895 41895 41895 39276 39276 39276 39276 39276 39276 39276 41895 41895 41895 41895 41895 41895 41895 41895 41895 41895 41895 41895 41895 41895 41895 44887 44887 48340 48340 52369 52369 52369 48340 52369 52369 57130 57130 62843 62843 62843 62843 0 0 39276 39276 44887 48340 48340 52369 52369 52369 52369 48340 44887 41895 39276 39276 41895 41895 41895 41895 41895 41895 41895 41895 41895 39276 39276 41895 41895 41895 41895 41895 41895 41895 39276 39276 39276 39276 39276 39276 39276 39276 39276 39276 39276 39276 39276 39276 39276 39276 39276 36966 36966 36966 36966 36966 36966 36966 36966 36966 39276 39276 39276 39276 36966 36966 36966 36966 36966 36966 36966 39276 41895 41895 41895 41895 41895 41895 0 0 0 0 62843 62843 65535 65535 65535 65535 65535 65535 65535 65535 65535 65535 65535 65535 65535 65535 65535 65535 65535 65535 65535 65535 65535 65535 65535 65535 65535 65535 65535 65535 65535 65535 65535 65535 65535 65535 65535 65535 65535 65535 65535 65535 65535 65535 65535 65535 65535 65535 65535 65535 65535 65535 65535 65535 65535 65535 65535 65535 65535 65535 65535 65535 65535 65535 65535
    0 0 0 0 0 0 0 0 0 0 0 0 0 0 0 0 0 0 0 0 0 0 0 0 0 0 0 0 0 0 0 0 19638 19638 19638 19638 19638 19638 19638 19638 19638 19638 19638 19638 19638 19638 20271 20271 20271 20271 20271 20271 20271 20271 20271 20947 21670 22443 23275 24170 24170 24170 23275 23275 23275 23275 23275 23275 0 0 0 0 0 0 0 0 0 0 0 0 0 0 0 0 0 0 0 0 0 0 0 0 0 0 0 0 0 0 0 0 0 0 0 0 0 31421 28565 27323 27323 27323 27323 27323 27323 27323 26184 26184 25137 25137 24170 25137 25137 25137 25137 25137 25137 26184 27323 27323 28565 29925 33075 36966 36966 36966 36966 36966 34912 34912 34912 34912 34912 34912 29925 31421 31421 31421 31421 31421 31421 33075 33075 33075 33075 33075 33075 34912 34912 34912 34912 34912 34912 34912 34912 34912 34912 34912 34912 34912 34912 34912 34912 34912 34912 34912 34912 34912 34912 34912 34912 34912 34912 36966 36966 36966 36966 36966 34912 34912 33075 33075 31421 31421 29925 28565 27323 26184 25137 25137 24170 24170 24170 24170 24170 24170 24170 24170 24170 24170 23275 23275 23275 23275 23275 23275 23275 23275 23275 23275 22443 21670 20947 20271 20947 20947 20947 21670 21670 21670 21670 21670 21670 21670 21670 21670 21670 21670 22443 22443 22443 22443 22443 23275 23275 23275 23275 22443 23275 23275 23275 24170 23275 23275 22443 22443 21670 21670 20947 20947 20947 20947 20947 20947 20947 20947 20947 20947 20947 20947 20947 23275 23275 25137 26184 26184 27323 27323 27323 27323 27323 27323 27323 27323 27323 27323 27323 0 0 0 0 0 28565 28565 28565 28565 28565 28565 28565 28565 28565 28565 29925 29925 28565 28565 28565 29925 29925 29925 29925 29925 29925 28565 29925 31421 34912 36966 39276 39276 39276 39276 39276 39276 39276 39276 39276 39276 39276 39276 39276 39276 39276 39276 39276 39276 39276 39276 39276 39276 41895 41895 41895 41895 44887 41895 41895 41895 41895 41895 41895 44887 44887 48340 48340 52369 52369 52369 52369 52369 57130 62843 62843 62843 62843 62843 62843 0 0 39276 39276 52369 57130 57130 62843 62843 62843 57130 57130 48340 41895 39276 39276 39276 39276 39276 41895 41895 41895 41895 41895 41895 39276 39276 41895 41895 41895 41895 41895 41895 41895 39276 39276 39276 39276 39276 39276 39276 39276 39276 39276 41895 41895 41895 39276 39276 39276 39276 39276 36966 36966 36966 36966 36966 36966 39276 39276 39276 39276 39276 39276 39276 36966 36966 36966 36966 36966 36966 36966 39276 41895 41895 41895 41895 41895 0 0 0 0 62843 62843 65535 65535 65535 65535 65535 65535 65535 65535 65535 65535 65535 65535 65535 65535 65535 65535 65535 65535 65535 65535 65535 65535 65535 65535 65535 65535 65535 65535 65535 65535 65535 65535 65535 65535 65535 65535 65535 65535 65535 65535 65535 65535 65535 65535 65535 65535 65535 65535 65535 65535 65535 65535 65535 65535 65535 65535 65535 65535 65535 65535 65535 65535 65535
    0 0 0 0 0 0 0 0 0 0 0 0 0 0 0 0 0 0 0 0 0 0 0 0 0 0 0 0 0 0 0 0 19638 19638 19638 19638 19638 19638 19638 19638 19638 19638 19638 19638 19638 19638 20271 20271 20271 20271 20271 20271 20271 20271 20271 20947 21670 22443 23275 24170 24170 24170 24170 23275 23275 23275 23275 23275 0 0 0 0 0 0 0 0 0 0 0 0 0 0 0 0 0 0 0 0 0 0 0 0 0 0 0 0 0 0 0 0 0 0 0 0 0 0 26184 26184 26184 26184 26184 26184 26184 25137 25137 25137 25137 24170 24170 25137 25137 25137 25137 25137 25137 26184 27323 27323 27323 28565 29925 36966 36966 36966 36966 36966 34912 34912 34912 34912 0 0 29925 31421 31421 31421 31421 31421 31421 31421 33075 33075 33075 33075 33075 34912 34912 34912 34912 34912 34912 34912 34912 34912 34912 34912 34912 34912 34912 34912 34912 34912 34912 34912 34912 34912 34912 34912 34912 34912 34912 36966 36966 36966 36966 36966 34912 34912 34912 33075 33075 31421 29925 27323 26184 25137 25137 24170 24170 23275 23275 23275 23275 23275 24170 24170 24170 23275 23275 23275 23275 23275 23275 23275 24170 24170 24170 23275 22443 21670 20947 20947 20947 21670 22443 22443 23275 22443 22443 22443 22443 22443 22443 22443 23275 23275 23275 23275 23275 23275 23275 23275 24170 24170 23275 23275 24170 25137 25137 25137 25137 24170 23275 22443 22443 21670 21670 21670 20947 20947 20947 20947 21670 21670 21670 22443 22443 23275 24170 24170 24170 26184 26184 27323 27323 27323 27323 27323 27323 27323 27323 27323 27323 27323 27323 27323 27323 27323 26184 26184 27323 27323 27323 27323 28565 28565 28565 28565 29925 29925 29925 29925 29925 29925 29925 29925 29925 29925 29925 29925 29925 29925 29925 31421 33075 36966 36966 36966 36966 39276 39276 39276 39276 39276 36966 36966 36966 36966 39276 39276 36966 39276 39276 39276 39276 39276 39276 39276 39276 41895 41895 41895 44887 44887 44887 44887 44887 44887 44887 44887 48340 48340 52369 57130 57130 62843 62843 62843 62843 62843 62843 62843 62843 62843 62843 0 0 39276 39276 57130 62843 65535 65535 65535 65535 65535 65535 57130 44887 39276 39276 39276 39276 39276 41895 41895 41895 41895 41895 41895 39276 39276 41895 41895 41895 41895 41895 41895 41895 39276 39276 39276 39276 39276 41895 41895 41895 41895 41895 41895 41895 41895 41895 41895 39276 39276 39276 39276 39276 36966 39276 39276 39276 39276 39276 39276 39276 39276 39276 39276 36966 36966 36966 36966 36966 34912 34912 0 0 0 0 0 0 0 0 0 0 0 62843 65535 65535 65535 65535 65535 65535 65535 65535 65535 65535 65535 65535 65535 65535 65535 65535 65535 65535 65535 65535 65535 65535 65535 65535 65535 65535 65535 65535 65535 65535 65535 65535 65535 65535 65535 65535 65535 65535 65535 65535 65535 65535 65535 65535 65535 65535 65535 65535 65535 65535 65535 65535 65535 65535 65535 65535 65535 65535 65535 65535 65535 65535 65535
    0 0 0 0 0 0 0 0 0 0 0 0 0 0 0 0 0 0 0 0 0 0 0 0 0 0 0 0 0 0 0 0 19638 19638 19638 19638 19638 19638 19638 19638 19638 19638 19638 19638 19638 19638 19638 20271 20271 20271 20271 20271 20271 20271 20271 20947 21670 22443 22443 23275 24170 24170 23275 23275 22443 22443 20947 19638 18483 17955 17955 0 0 0 0 0 0 0 0 0 0 0 0 0 0 0 0 0 0 0 0 0 0 0 0 0 0 0 0 0 0 0 0 0 0 0 26184 26184 26184 26184 26184 26184 25137 25137 25137 24170 24170 24170 24170 25137 25137 25137 25137 25137 26184 26184 26184 27323 27323 27323 28565 26184 0 0 0 0 0 0 0 0 0 0 29925 29925 29925 29925 31421 31421 31421 31421 33075 33075 33075 33075 34912 34912 34912 36966 36966 36966 36966 36966 36966 39276 39276 39276 0 34912 34912 34912 34912 34912 34912 34912 34912 34912 34912 34912 34912 34912 34912 34912 34912 34912 34912 34912 34912 34912 34912 33075 33075 31421 28565 27323 26184 25137 24170 24170 24170 23275 23275 23275 23275 23275 23275 23275 23275 23275 23275 23275 23275 23275 23275 24170 24170 24170 24170 23275 23275 22443 21670 21670 21670 22443 23275 23275 24170 23275 23275 22443 22443 22443 22443 23275 23275 24170 24170 24170 23275 23275 23275 24170 24170 24170 24170 24170 25137 25137 26184 25137 25137 24170 24170 23275 23275 22443 22443 21670 21670 21670 21670 21670 21670 21670 22443 23275 24170 26184 27323 26184 26184 26184 27323 27323 27323 27323 27323 27323 27323 27323 27323 27323 27323 27323 27323 27323 27323 27323 26184 26184 26184 27323 27323 27323 27323 28565 28565 28565 29925 29925 29925 29925 29925 29925 29925 29925 29925 29925 29925 29925 29925 29925 29925 31421 33075 34912 36966 36966 36966 36966 36966 36966 36966 36966 36966 36966 36966 36966 36966 39276 36966 39276 39276 39276 39276 39276 39276 39276 39276 39276 41895 41895 41895 44887 44887 44887 44887 44887 48340 48340 48340 52369 52369 57130 62843 62843 62843 62843 62843 62843 62843 62843 62843 62843 0 0 0 0 0 65535 65535 65535 65535 65535 65535 65535 65535 65535 65535 0 0 0 0 0 0 41895 41895 41895 41895 41895 39276 39276 41895 41895 41895 41895 41895 41895 41895 39276 39276 39276 39276 39276 41895 41895 41895 41895 41895 41895 41895 41895 41895 41895 41895 39276 39276 39276 39276 39276 39276 39276 39276 39276 39276 39276 39276 39276 39276 39276 39276 39276 39276 39276 39276 39276 39276 0 0 0 0 0 0 0 0 0 0 0 0 65535 65535 65535 65535 65535 65535 65535 65535 65535 65535 65535 65535 65535 65535 65535 65535 65535 65535 65535 65535 65535 65535 65535 65535 65535 65535 65535 65535 65535 65535 65535 65535 65535 65535 65535 65535 65535 65535 65535 65535 65535 65535 65535 65535 65535 65535 65535 65535 65535 65535 65535 65535 65535 65535 65535 65535 65535 65535 65535 65535 65535 65535 65535
    0 0 0 0 0 0 0 0 0 0 0 0 0 0 0 0 0 0 0 0 0 0 0 0 0 0 0 0 0 0 0 0 19638 19638 19638 19638 19638 19638 19638 19638 19638 19638 19638 19638 19638 19638 19638 19638 19638 19638 20271 20271 20271 20271 20271 20271 20947 21670 22443 23275 23275 23275 22443 22443 21670 20947 19638 18483 18483 17955 17955 0 0 0 0 0 0 0 0 0 0 0 0 0 0 0 0 0 0 0 0 0 0 0 0 0 0 0 0 0 0 0 0 0 0 0 0 26184 26184 26184 26184 26184 25137 25137 24170 24170 24170 24170 24170 24170 24170 25137 25137 25137 25137 26184 26184 26184 26184 26184 27323 26184 0 0 0 0 0 0 0 0 0 0 29925 29925 29925 29925 31421 31421 31421 31421 33075 33075 33075 34912 34912 36966 36966 39276 39276 39276 39276 39276 36966 39276 39276 39276 0 34912 34912 34912 34912 34912 33075 33075 33075 33075 34912 34912 34912 34912 34912 33075 33075 31421 33075 33075 33075 34912 34912 34912 33075 29925 28565 26184 25137 25137 24170 24170 23275 23275 23275 23275 23275 23275 23275 23275 23275 23275 23275 23275 23275 24170 24170 24170 24170 24170 24170 24170 23275 23275 22443 22443 22443 23275 23275 24170 24170 24170 23275 23275 23275 23275 23275 23275 23275 24170 24170 24170 24170 24170 24170 24170 24170 24170 24170 24170 25137 25137 25137 25137 25137 25137 24170 24170 23275 23275 22443 22443 22443 22443 22443 22443 23275 23275 24170 25137 26184 26184 27323 27323 27323 27323 27323 27323 27323 27323 27323 27323 27323 27323 27323 27323 27323 27323 27323 27323 27323 27323 26184 26184 26184 26184 26184 27323 27323 27323 28565 28565 29925 29925 29925 29925 29925 29925 29925 29925 31421 31421 31421 31421 31421 31421 31421 33075 33075 34912 34912 34912 34912 36966 36966 36966 36966 36966 36966 36966 36966 36966 36966 39276 39276 39276 39276 39276 39276 39276 39276 39276 39276 39276 39276 41895 41895 44887 44887 44887 48340 48340 48340 48340 52369 52369 57130 62843 62843 62843 62843 62843 62843 0 0 0 0 0 0 0 0 0 0 65535 65535 65535 65535 65535 65535 65535 65535 65535 0 0 0 0 0 0 0 0 0 0 0 0 0 0 36966 36966 36966 36966 34912 36966 36966 36966 39276 39276 39276 39276 39276 41895 41895 41895 41895 41895 41895 41895 41895 41895 41895 41895 41895 41895 41895 41895 41895 39276 39276 39276 39276 39276 39276 39276 39276 39276 41895 41895 41895 41895 41895 41895 41895 41895 0 0 0 0 0 0 0 0 0 0 0 65535 65535 65535 65535 65535 65535 65535 65535 65535 65535 65535 65535 65535 65535 65535 65535 65535 65535 65535 65535 65535 65535 65535 65535 65535 65535 65535 65535 65535 65535 65535 65535 65535 65535 65535 65535 65535 65535 65535 65535 65535 65535 65535 65535 65535 65535 65535 65535 65535 65535 65535 65535 65535 65535 65535 65535 65535 65535 65535 65535 65535 65535 65535
    0 0 0 0 0 0 0 0 0 0 0 0 0 0 0 0 0 0 0 0 0 0 0 0 0 0 0 0 0 0 0 0 19638 19638 19638 19638 19638 19638 19638 19638 19638 19638 19638 19638 19638 19638 20271 20271 20271 20271 20271 20271 20271 20271 20271 20271 20271 20947 21670 21670 22443 22443 22443 21670 20947 20271 19638 18483 18483 18483 17955 17955 0 0 0 0 0 0 0 0 0 0 0 0 0 0 0 0 0 0 0 0 0 0 0 0 0 0 0 0 0 0 0 0 0 0 0 0 26184 26184 26184 25137 25137 24170 24170 24170 24170 24170 24170 24170 24170 24170 25137 25137 25137 25137 25137 25137 25137 25137 26184 26184 0 0 0 0 0 0 0 0 0 23275 25137 26184 27323 28565 29925 29925 31421 31421 33075 33075 33075 34912 34912 36966 39276 41895 41895 41895 41895 39276 39276 39276 39276 39276 0 34912 34912 34912 34912 33075 33075 31421 31421 31421 31421 33075 33075 34912 34912 33075 29925 29925 29925 29925 31421 33075 34912 33075 31421 28565 26184 25137 25137 24170 24170 24170 23275 23275 23275 23275 23275 23275 23275 23275 23275 23275 23275 23275 24170 24170 24170 24170 24170 24170 24170 24170 24170 24170 23275 23275 23275 23275 24170 24170 24170 24170 23275 23275 23275 23275 23275 23275 24170 24170 24170 24170 24170 24170 24170 24170 24170 24170 24170 24170 24170 25137 25137 25137 25137 25137 25137 24170 24170 23275 23275 23275 23275 23275 24170 24170 24170 25137 25137 26184 26184 26184 27323 27323 27323 27323 27323 27323 27323 27323 27323 27323 27323 27323 27323 27323 27323 27323 27323 27323 27323 27323 26184 26184 26184 26184 26184 27323 27323 27323 27323 28565 29925 29925 29925 29925 29925 29925 29925 31421 31421 31421 31421 31421 31421 31421 33075 34912 34912 34912 34912 34912 34912 34912 34912 34912 34912 34912 34912 36966 36966 36966 39276 39276 39276 39276 39276 39276 39276 39276 36966 36966 36966 39276 39276 39276 41895 41895 44887 44887 48340 48340 48340 52369 52369 52369 57130 57130 62843 62843 62843 62843 62843 0 0 0 0 0 0 0 0 0 0 65535 65535 65535 65535 62843 62843 57130 52369 48340 31421 31421 31421 31421 31421 0 0 0 0 0 0 29925 29925 31421 31421 31421 31421 31421 31421 31421 31421 31421 31421 33075 33075 34912 36966 39276 39276 41895 41895 41895 41895 41895 41895 41895 41895 41895 41895 41895 41895 41895 41895 39276 39276 39276 39276 39276 39276 39276 41895 41895 41895 41895 41895 41895 41895 41895 41895 41895 41895 0 0 0 0 0 0 0 0 0 0 0 65535 65535 65535 65535 62843 62843 65535 62843 62843 65535 65535 65535 65535 65535 65535 65535 65535 65535 65535 65535 65535 65535 65535 65535 65535 65535 65535 65535 65535 65535 65535 65535 65535 65535 65535 65535 65535 65535 65535 65535 65535 65535 65535 65535 65535 65535 65535 65535 65535 65535 65535 65535 65535 65535 65535 65535 65535 65535 65535 65535 65535 65535
    0 0 0 0 0 0 0 0 0 0 0 0 0 0 0 0 0 0 0 0 0 0 0 0 0 0 0 0 0 0 0 0 19638 19638 19638 19638 19638 19638 19638 19638 19638 19638 19638 19638 19638 19638 19638 19638 20271 20271 20271 20271 20271 19638 19638 19638 20271 20271 20271 20947 20947 21670 20947 20947 20271 19638 19043 18483 18483 18483 18483 18483 0 0 0 0 0 0 0 0 0 0 0 0 0 0 0 0 0 0 0 0 0 0 0 0 0 0 0 0 0 0 0 0 0 0 0 0 26184 26184 25137 25137 24170 24170 24170 24170 24170 24170 24170 24170 24170 24170 24170 24170 24170 25137 25137 25137 25137 25137 25137 25137 23275 0 0 0 0 0 27323 25137 25137 24170 23275 24170 25137 26184 27323 28565 29925 31421 33075 33075 33075 34912 34912 39276 41895 44887 44887 44887 44887 44887 41895 41895 41895 41895 0 0 34912 34912 34912 33075 31421 31421 29925 29925 29925 29925 31421 31421 33075 29925 27323 27323 27323 28565 29925 31421 33075 31421 28565 26184 25137 25137 24170 24170 24170 24170 23275 23275 23275 23275 23275 23275 23275 23275 23275 23275 23275 23275 24170 24170 24170 24170 24170 24170 24170 24170 24170 24170 24170 24170 24170 24170 24170 24170 23275 23275 23275 23275 23275 23275 23275 23275 24170 24170 24170 23275 23275 23275 23275 24170 24170 24170 24170 24170 24170 24170 25137 25137 25137 25137 25137 25137 24170 24170 24170 24170 24170 24170 25137 25137 25137 25137 26184 26184 26184 26184 26184 26184 27323 27323 27323 27323 27323 27323 27323 27323 27323 27323 27323 27323 27323 27323 27323 27323 27323 26184 26184 26184 26184 26184 26184 27323 27323 27323 28565 28565 29925 29925 29925 29925 29925 29925 29925 31421 31421 31421 31421 31421 33075 33075 33075 34912 34912 34912 34912 34912 33075 33075 34912 34912 34912 34912 34912 36966 36966 36966 39276 39276 39276 39276 39276 39276 39276 36966 36966 36966 36966 36966 39276 39276 39276 41895 41895 44887 44887 48340 48340 48340 52369 52369 57130 57130 62843 62843 62843 62843 62843 0 0 0 0 0 0 0 0 0 0 0 0 65535 57130 48340 48340 48340 44887 41895 31421 31421 31421 31421 31421 0 0 0 0 0 0 29925 29925 31421 31421 31421 31421 31421 31421 31421 31421 31421 31421 31421 31421 33075 34912 36966 39276 41895 41895 41895 41895 41895 41895 41895 41895 41895 41895 41895 41895 41895 41895 39276 39276 39276 39276 39276 39276 39276 41895 41895 41895 41895 41895 41895 41895 41895 41895 41895 41895 39276 39276 39276 0 0 0 0 0 0 0 0 0 0 0 52369 52369 57130 57130 57130 57130 57130 57130 57130 65535 65535 65535 65535 65535 65535 65535 65535 65535 65535 65535 65535 65535 65535 65535 65535 65535 65535 65535 65535 65535 65535 65535 65535 65535 65535 65535 65535 65535 65535 65535 65535 65535 65535 65535 65535 65535 65535 65535 65535 65535 65535 65535 65535 65535 65535 65535 65535 65535 65535
    0 0 0 0 0 0 0 0 0 0 0 0 0 0 0 0 0 0 0 0 0 0 0 0 0 0 0 0 0 0 0 0 0 19638 19638 19638 19638 19638 19638 19638 19638 19638 19638 19043 19043 19043 19043 19638 20271 20271 20271 20271 20271 19638 19638 19638 19638 19638 20271 20271 20271 20271 20271 20271 19638 19638 19043 19043 18483 18483 18483 19043 19043 0 0 0 0 0 0 0 0 0 0 0 0 0 0 0 0 0 0 0 0 0 0 0 0 0 0 0 0 0 0 0 0 0 0 0 0 26184 25137 24170 24170 24170 24170 23275 23275 23275 23275 23275 23275 24170 24170 24170 24170 24170 24170 24170 24170 24170 24170 24170 23275 0 0 0 0 0 27323 25137 24170 24170 23275 23275 24170 24170 25137 27323 28565 33075 33075 33075 33075 34912 36966 39276 44887 48340 48340 52369 52369 52369 52369 52369 52369 52369 0 0 0 34912 34912 31421 29925 28565 28565 27323 27323 27323 27323 26184 26184 25137 24170 25137 26184 26184 28565 29925 31421 28565 26184 25137 24170 24170 24170 24170 24170 23275 23275 23275 23275 23275 23275 23275 23275 23275 23275 23275 23275 23275 24170 24170 24170 24170 24170 24170 24170 24170 24170 23275 23275 23275 23275 23275 23275 23275 23275 23275 23275 23275 23275 23275 23275 23275 24170 24170 23275 23275 23275 23275 23275 23275 23275 24170 24170 23275 23275 24170 24170 25137 25137 25137 25137 25137 24170 24170 24170 24170 25137 25137 26184 26184 25137 25137 26184 26184 26184 26184 26184 26184 26184 27323 27323 27323 27323 27323 27323 27323 27323 27323 27323 27323 27323 27323 27323 27323 26184 26184 26184 26184 26184 26184 26184 26184 27323 27323 28565 28565 29925 29925 29925 29925 29925 29925 31421 31421 31421 31421 31421 31421 33075 33075 33075 34912 34912 34912 34912 33075 33075 33075 33075 33075 34912 34912 34912 36966 36966 39276 39276 39276 39276 39276 39276 36966 36966 36966 36966 36966 36966 36966 36966 36966 39276 39276 39276 41895 41895 44887 44887 48340 48340 52369 52369 57130 57130 62843 62843 62843 62843 0 0 0 0 0 0 0 0 0 0 0 0 0 41895 41895 41895 41895 41895 44887 41895 41895 41895 39276 36966 0 0 0 0 0 0 29925 29925 31421 31421 31421 31421 31421 31421 31421 31421 31421 31421 31421 31421 31421 33075 36966 39276 41895 41895 41895 41895 41895 41895 41895 39276 39276 41895 41895 41895 41895 41895 39276 39276 39276 39276 39276 39276 39276 41895 41895 41895 41895 41895 41895 41895 41895 41895 41895 39276 39276 39276 39276 36966 0 0 0 0 0 0 0 65535 65535 65535 65535 62843 57130 57130 57130 52369 52369 57130 57130 65535 65535 65535 65535 65535 65535 65535 65535 65535 65535 65535 65535 65535 65535 65535 65535 65535 65535 65535 65535 65535 65535 65535 65535 65535 65535 65535 65535 65535 65535 65535 65535 65535 65535 65535 65535 65535 65535 65535 65535 65535 65535 65535 65535 65535 65535 65535 65535 65535 65535
    0 0 0 0 0 0 0 0 0 0 0 0 0 0 0 0 0 0 0 0 0 0 0 0 0 0 0 0 0 0 0 0 0 19638 19638 19638 19638 19638 19638 19638 19638 19638 19043 18483 19043 19043 19043 19638 20271 20271 20271 20271 20271 19638 19638 19638 19638 19638 19638 19638 19638 19638 19638 19638 19638 19638 19043 19043 19043 19043 19043 19043 19638 19638 19638 0 0 0 0 0 0 0 0 0 0 0 0 0 0 0 0 0 0 0 0 0 0 0 0 0 0 0 0 0 0 0 0 0 0 0 24170 24170 24170 24170 24170 23275 23275 23275 23275 23275 23275 23275 24170 24170 24170 24170 24170 24170 24170 24170 24170 24170 23275 0 0 0 0 0 27323 25137 24170 24170 23275 23275 23275 23275 24170 25137 26184 33075 33075 33075 33075 34912 36966 41895 52369 52369 52369 52369 52369 52369 0 0 0 0 0 0 0 18483 25137 27323 27323 26184 27323 26184 25137 24170 24170 22443 22443 22443 23275 24170 25137 25137 26184 27323 27323 25137 24170 23275 23275 23275 24170 24170 23275 23275 23275 23275 23275 23275 23275 23275 23275 23275 23275 23275 23275 23275 24170 24170 24170 24170 24170 24170 24170 24170 23275 23275 23275 22443 22443 23275 23275 23275 23275 23275 23275 23275 23275 23275 23275 23275 23275 23275 23275 23275 23275 23275 23275 23275 23275 23275 23275 23275 23275 23275 23275 24170 24170 25137 25137 24170 24170 24170 24170 25137 25137 25137 25137 25137 25137 25137 25137 26184 26184 26184 26184 26184 26184 26184 26184 27323 27323 27323 27323 27323 27323 27323 27323 27323 27323 27323 27323 27323 26184 26184 25137 25137 25137 25137 26184 26184 27323 27323 28565 29925 29925 29925 29925 29925 29925 29925 31421 31421 31421 31421 31421 31421 31421 33075 33075 34912 34912 34912 34912 33075 33075 33075 33075 33075 33075 33075 34912 36966 36966 36966 39276 39276 36966 36966 36966 36966 36966 36966 36966 36966 36966 36966 36966 36966 36966 36966 39276 39276 41895 41895 44887 44887 48340 48340 48340 52369 52369 52369 52369 52369 44887 44887 44887 44887 0 0 0 0 0 0 0 0 0 0 29925 29925 33075 34912 36966 41895 44887 41895 41895 39276 36966 0 0 0 0 0 0 29925 29925 31421 31421 31421 31421 31421 31421 31421 31421 31421 31421 31421 31421 31421 33075 34912 36966 41895 41895 41895 41895 41895 41895 41895 41895 41895 41895 41895 41895 41895 41895 41895 41895 41895 41895 41895 39276 39276 41895 41895 41895 41895 41895 41895 41895 41895 41895 41895 39276 39276 39276 39276 36966 0 65535 65535 65535 65535 65535 65535 65535 65535 65535 65535 62843 57130 57130 52369 52369 57130 57130 62843 65535 65535 65535 65535 65535 65535 65535 65535 65535 65535 65535 65535 65535 65535 65535 65535 65535 65535 65535 65535 65535 65535 65535 65535 65535 65535 65535 65535 65535 65535 65535 65535 65535 65535 65535 65535 65535 65535 65535 65535 65535 65535 65535 65535 65535 65535 65535 65535 65535 65535
    0 0 0 0 0 0 0 0 0 0 0 0 0 0 0 0 0 0 0 0 0 0 0 0 0 0 0 0 0 0 0 0 0 19638 19638 19638 19638 19638 19638 19638 19638 19638 19043 18483 18483 18483 19043 19638 20271 20271 20271 20271 20271 19638 19638 19638 19638 19638 19043 19043 19043 19638 19638 19638 19638 19638 19043 19043 19043 19043 19043 19043 19638 19638 20271 20947 20947 20947 20947 20271 20271 20271 20271 0 0 0 0 0 0 0 0 0 0 0 0 0 0 0 0 0 0 0 0 0 0 0 0 0 0 0 0 23275 23275 23275 23275 23275 23275 23275 23275 23275 23275 23275 24170 24170 23275 23275 23275 24170 24170 24170 24170 24170 23275 0 0 0 0 0 27323 25137 24170 24170 23275 22443 22443 22443 22443 22443 23275 33075 33075 33075 33075 33075 33075 39276 52369 52369 52369 52369 52369 52369 0 0 0 0 0 0 17955 18483 19638 21670 22443 23275 24170 24170 24170 23275 22443 21670 20947 20947 21670 21670 22443 22443 22443 22443 23275 23275 22443 23275 23275 23275 23275 24170 23275 23275 23275 23275 23275 23275 23275 23275 23275 23275 23275 23275 23275 23275 24170 24170 24170 24170 24170 24170 24170 23275 23275 23275 22443 22443 22443 22443 22443 23275 23275 22443 22443 23275 23275 23275 23275 23275 23275 23275 23275 23275 22443 22443 22443 22443 22443 22443 22443 22443 22443 22443 23275 23275 24170 24170 25137 24170 24170 24170 25137 25137 25137 26184 26184 25137 25137 25137 26184 26184 26184 26184 26184 26184 26184 26184 26184 27323 27323 27323 27323 27323 27323 27323 26184 0 26184 26184 26184 26184 26184 25137 25137 24170 25137 25137 25137 26184 27323 28565 28565 29925 29925 29925 29925 29925 29925 29925 31421 31421 31421 31421 31421 31421 31421 31421 33075 34912 34912 34912 33075 33075 33075 33075 33075 33075 33075 33075 34912 34912 36966 36966 39276 36966 36966 36966 36966 36966 36966 36966 36966 36966 36966 36966 36966 36966 36966 36966 36966 36966 39276 39276 41895 41895 44887 44887 44887 44887 44887 44887 44887 44887 44887 44887 44887 44887 44887 0 0 0 0 0 0 0 0 0 29925 29925 36966 41895 44887 48340 44887 44887 44887 41895 36966 0 0 0 0 0 0 29925 29925 31421 31421 31421 31421 31421 31421 31421 31421 31421 31421 31421 31421 31421 33075 34912 36966 39276 41895 41895 39276 41895 41895 41895 41895 41895 41895 41895 41895 41895 41895 41895 41895 41895 41895 41895 41895 39276 39276 39276 41895 41895 41895 41895 41895 41895 41895 39276 39276 39276 39276 39276 39276 65535 65535 65535 65535 65535 65535 65535 65535 65535 65535 65535 65535 62843 57130 57130 57130 57130 62843 65535 65535 65535 65535 65535 65535 65535 65535 65535 65535 65535 65535 65535 65535 65535 65535 65535 65535 65535 65535 65535 65535 65535 65535 65535 65535 65535 65535 65535 65535 65535 65535 65535 65535 65535 65535 65535 65535 65535 65535 65535 65535 65535 65535 65535 65535 65535 65535 65535 65535 65535
    0 0 0 0 0 0 0 0 0 0 0 0 0 0 0 0 0 0 0 0 0 0 0 0 0 0 0 0 0 0 0 0 0 19638 19638 19638 19638 19638 19638 19638 19638 19638 19043 18483 18483 18483 19043 19043 20271 20271 19638 19638 19638 19638 19638 19638 19638 19638 19043 19043 19043 19043 19043 19638 19638 19043 19043 19043 19043 19043 19638 19638 19638 19638 20271 20271 20947 20947 20271 20271 20271 20271 19638 19638 19638 19638 19638 19638 19638 19638 19638 19638 0 0 0 0 0 0 0 0 0 0 0 0 0 0 0 0 0 0 0 0 23275 23275 23275 23275 23275 23275 23275 23275 23275 23275 24170 24170 23275 23275 23275 23275 23275 23275 23275 23275 23275 0 0 0 0 0 27323 25137 24170 24170 23275 22443 22443 22443 21670 21670 21670 33075 33075 33075 33075 33075 33075 33075 0 0 0 0 0 0 0 0 0 0 0 17955 17955 18483 19043 20271 20947 21670 22443 23275 22443 22443 21670 21670 20947 20947 20947 20947 20271 20947 20271 20271 21670 21670 21670 22443 22443 22443 22443 23275 23275 23275 23275 23275 22443 22443 23275 23275 23275 23275 23275 23275 23275 23275 24170 24170 24170 24170 24170 24170 24170 23275 23275 22443 22443 21670 21670 21670 21670 22443 23275 23275 22443 22443 23275 23275 23275 23275 23275 24170 23275 23275 22443 22443 22443 21670 21670 22443 22443 21670 21670 22443 22443 22443 22443 24170 25137 25137 25137 25137 25137 25137 26184 26184 26184 26184 25137 26184 26184 26184 26184 26184 26184 26184 26184 26184 27323 27323 27323 27323 27323 27323 27323 27323 26184 0 21670 22443 22443 22443 22443 23275 23275 24170 24170 24170 24170 26184 29925 29925 29925 29925 29925 29925 29925 29925 29925 29925 31421 31421 31421 31421 33075 33075 33075 31421 33075 33075 34912 34912 33075 33075 33075 33075 33075 33075 33075 33075 34912 34912 36966 36966 36966 36966 36966 36966 36966 36966 36966 36966 36966 36966 36966 36966 36966 36966 36966 36966 36966 36966 36966 39276 39276 41895 41895 41895 41895 41895 41895 41895 41895 44887 44887 44887 44887 44887 44887 44887 41895 41895 0 0 0 0 0 0 0 0 48340 48340 48340 48340 48340 48340 44887 44887 41895 0 0 0 0 0 0 29925 31421 31421 31421 31421 31421 31421 31421 31421 31421 29925 29925 31421 33075 33075 34912 39276 41895 41895 41895 41895 41895 41895 41895 41895 41895 41895 41895 41895 41895 41895 44887 44887 44887 44887 41895 41895 41895 41895 41895 41895 41895 41895 41895 39276 39276 39276 39276 41895 41895 41895 41895 41895 41895 65535 65535 65535 65535 65535 65535 65535 65535 65535 65535 65535 65535 65535 62843 62843 62843 65535 65535 65535 65535 65535 65535 65535 65535 65535 65535 65535 65535 65535 65535 65535 65535 65535 65535 65535 65535 65535 65535 65535 65535 65535 65535 65535 65535 65535 65535 65535 65535 65535 65535 65535 65535 65535 65535 65535 65535 65535 65535 65535 65535 65535 65535 65535 65535 65535 65535 65535 65535 65535
    0 0 0 0 0 0 0 0 0 0 0 0 0 0 0 0 0 0 0 0 0 0 0 0 0 0 0 0 0 0 0 0 19638 19638 19638 19638 19638 19638 19638 19638 19638 19638 19043 19043 19043 19043 19043 19638 19638 19638 19638 19638 19638 19638 19638 19638 19638 19638 19043 19043 19043 19043 19043 19043 19043 19043 19638 19638 19638 19638 19638 19638 19638 19638 20271 20271 20271 20947 20271 20271 20271 20271 19638 19638 19638 19638 19638 19638 19638 19638 19638 19638 19638 0 0 0 0 0 0 0 0 0 0 0 0 0 0 0 0 0 0 0 0 23275 23275 23275 23275 23275 23275 23275 23275 23275 24170 24170 23275 23275 23275 23275 23275 23275 23275 23275 23275 0 0 0 0 0 0 23275 23275 23275 22443 22443 22443 22443 21670 21670 21670 0 0 0 0 0 0 0 0 0 0 0 0 0 0 0 0 17955 17955 17955 17955 18483 18483 19043 19638 20271 20947 21670 21670 21670 21670 20947 20947 20947 20271 20271 19638 19638 19638 19638 20271 20947 20947 20947 21670 21670 22443 23275 23275 23275 23275 23275 22443 22443 23275 23275 23275 23275 24170 24170 23275 23275 23275 24170 24170 24170 24170 24170 24170 23275 23275 22443 21670 20947 21670 21670 22443 23275 23275 23275 23275 22443 22443 23275 23275 23275 24170 24170 24170 23275 23275 22443 22443 21670 21670 21670 21670 21670 21670 21670 21670 21670 22443 24170 25137 26184 26184 26184 26184 26184 26184 26184 26184 26184 26184 26184 27323 27323 26184 26184 26184 26184 26184 26184 27323 27323 27323 27323 27323 27323 27323 27323 27323 0 21670 22443 22443 22443 22443 23275 23275 23275 23275 24170 24170 24170 26184 28565 0 31421 31421 31421 31421 31421 29925 29925 31421 31421 31421 33075 33075 33075 33075 33075 33075 34912 34912 34912 33075 33075 33075 33075 33075 33075 33075 33075 34912 34912 34912 34912 36966 36966 36966 36966 36966 34912 34912 34912 34912 34912 36966 36966 36966 36966 36966 36966 36966 36966 36966 36966 39276 39276 39276 41895 41895 41895 41895 41895 41895 44887 44887 44887 44887 44887 44887 44887 44887 44887 44887 44887 0 0 0 0 0 0 48340 48340 48340 48340 48340 48340 48340 48340 44887 41895 0 0 0 0 0 34912 34912 33075 33075 33075 33075 33075 31421 31421 31421 29925 29925 33075 34912 36966 39276 41895 41895 41895 41895 41895 41895 41895 41895 41895 41895 41895 41895 44887 44887 44887 44887 44887 44887 44887 44887 44887 41895 41895 41895 41895 41895 41895 0 0 0 0 44887 44887 44887 44887 44887 44887 41895 62843 65535 65535 65535 65535 65535 65535 65535 65535 65535 65535 65535 65535 65535 65535 65535 65535 65535 65535 65535 65535 65535 65535 65535 65535 65535 65535 65535 65535 65535 65535 65535 65535 65535 65535 65535 65535 65535 65535 65535 65535 65535 65535 65535 65535 65535 65535 65535 65535 65535 65535 65535 65535 65535 65535 65535 65535 65535 65535 65535 65535 65535 65535 65535 65535 65535 65535 65535 65535
    0 0 0 0 0 0 0 0 0 0 0 0 0 0 0 0 0 0 0 0 0 0 0 0 0 0 0 0 0 0 0 0 19638 19638 19638 19638 19638 19638 19638 19638 19638 19638 19638 19638 19638 19638 19638 19638 19638 19638 19638 19638 19638 19638 19638 19638 19043 19043 19043 19043 19638 19638 19638 19638 19638 19638 19638 19638 19638 19638 19638 19638 19638 19638 19638 20271 20271 20271 20271 20271 20271 20271 19638 19638 19638 19638 19638 19638 20271 20271 20271 20271 20271 20271 20271 0 0 0 0 0 0 0 0 0 0 0 0 0 0 0 0 0 0 0 23275 23275 23275 23275 23275 23275 23275 24170 24170 24170 23275 23275 23275 23275 23275 23275 23275 23275 23275 0 0 0 0 0 0 0 0 22443 22443 22443 22443 22443 21670 21670 0 0 0 0 0 0 0 0 0 0 0 0 0 0 0 0 17955 17955 17955 17955 17955 17955 18483 18483 19043 19043 20271 20271 20947 20947 20947 20947 20947 20947 20947 20271 20271 20271 19638 19638 20271 20271 20947 20947 20947 20947 21670 23275 23275 23275 23275 23275 22443 22443 23275 23275 23275 24170 24170 24170 23275 23275 23275 23275 23275 23275 24170 24170 23275 23275 23275 22443 21670 20947 20947 21670 22443 23275 24170 23275 23275 23275 23275 23275 23275 23275 24170 24170 24170 24170 23275 22443 22443 21670 21670 21670 21670 21670 21670 21670 21670 22443 23275 24170 26184 26184 26184 26184 27323 27323 27323 27323 27323 27323 27323 27323 27323 27323 27323 27323 27323 27323 27323 27323 27323 27323 27323 28565 27323 27323 27323 27323 27323 0 22443 22443 22443 22443 22443 22443 23275 23275 23275 23275 24170 24170 27323 28565 0 31421 31421 31421 31421 31421 31421 31421 31421 31421 31421 33075 33075 33075 33075 33075 33075 34912 34912 33075 33075 33075 33075 33075 33075 33075 33075 33075 33075 34912 34912 34912 34912 34912 36966 34912 34912 34912 34912 34912 34912 34912 36966 36966 36966 36966 36966 36966 36966 36966 36966 36966 36966 39276 39276 39276 39276 39276 39276 41895 41895 44887 44887 44887 44887 44887 44887 44887 44887 44887 44887 44887 44887 0 0 0 0 0 48340 48340 48340 48340 48340 48340 48340 44887 44887 44887 0 0 0 0 0 34912 34912 34912 34912 33075 33075 33075 33075 33075 31421 29925 29925 33075 34912 36966 39276 41895 41895 41895 41895 41895 41895 41895 41895 44887 44887 44887 44887 44887 44887 44887 44887 44887 44887 44887 44887 44887 44887 44887 44887 44887 44887 44887 44887 0 0 62843 57130 52369 48340 48340 48340 44887 48340 65535 65535 65535 65535 65535 65535 65535 65535 65535 65535 65535 65535 65535 65535 65535 65535 65535 65535 65535 65535 65535 65535 65535 65535 65535 65535 65535 65535 65535 65535 65535 65535 65535 65535 65535 65535 65535 65535 65535 65535 65535 65535 65535 65535 65535 65535 65535 65535 65535 65535 65535 65535 65535 65535 65535 65535 65535 65535 65535 65535 65535 65535 65535 65535 65535 65535 65535 65535 65535
    0 0 0 0 0 0 0 0 0 0 0 0 0 0 0 0 0 0 0 0 0 0 0 0 0 0 0 0 0 0 0 0 19638 19638 19638 19638 19638 19638 19638 19638 19638 19638 19638 19638 19638 19638 19638 19638 19638 19638 19638 19638 19638 19043 19043 19043 19043 19043 19043 19638 19638 19638 19638 19638 19638 19638 19638 19638 19638 19638 19638 19638 19638 19638 19638 19638 20271 20271 20271 20271 20271 20271 19638 19638 19638 19638 19638 20271 20271 20271 20271 20947 20947 20947 20947 20947 20271 20271 20947 20947 20947 20947 20947 0 0 0 0 0 0 0 0 0 0 0 0 0 0 0 0 0 0 0 24170 24170 24170 24170 24170 23275 23275 24170 24170 24170 24170 24170 0 0 0 0 0 0 0 0 0 0 0 26184 26184 26184 26184 26184 0 0 0 0 0 0 17456 17456 17456 17456 17456 16984 16984 17456 17955 17955 17955 17955 17955 17955 17955 17955 18483 18483 19043 19638 20947 20947 20947 20947 20947 20947 20947 20947 20947 20947 20271 20271 20271 20271 20271 20271 20947 20947 21670 23275 23275 23275 23275 23275 22443 22443 23275 23275 23275 24170 24170 24170 23275 23275 23275 23275 23275 23275 23275 23275 23275 23275 23275 22443 21670 20947 21670 22443 23275 24170 24170 24170 24170 23275 23275 23275 23275 24170 25137 25137 25137 24170 24170 23275 22443 21670 20947 20947 20947 20947 20947 21670 21670 22443 23275 25137 26184 26184 26184 26184 27323 27323 27323 27323 27323 27323 27323 27323 27323 27323 27323 27323 27323 27323 27323 27323 27323 27323 27323 28565 28565 28565 28565 28565 27323 0 22443 22443 22443 22443 22443 22443 22443 22443 23275 23275 24170 24170 27323 28565 0 31421 31421 31421 31421 31421 31421 31421 31421 31421 33075 33075 33075 33075 33075 34912 34912 34912 34912 34912 33075 33075 33075 33075 33075 33075 33075 33075 33075 34912 34912 34912 34912 34912 34912 34912 34912 34912 34912 34912 34912 34912 34912 36966 36966 36966 36966 36966 36966 36966 36966 36966 36966 36966 36966 36966 39276 39276 39276 39276 41895 41895 44887 44887 44887 44887 44887 44887 44887 44887 44887 44887 48340 48340 48340 48340 0 0 48340 48340 48340 48340 48340 48340 48340 44887 44887 44887 0 0 0 0 0 36966 36966 34912 34912 34912 34912 34912 34912 33075 31421 29925 29925 34912 36966 39276 41895 44887 41895 41895 41895 41895 41895 41895 41895 44887 44887 44887 44887 44887 44887 44887 44887 44887 44887 44887 44887 44887 44887 44887 44887 44887 44887 44887 52369 62843 62843 62843 62843 57130 52369 52369 52369 52369 57130 65535 65535 65535 65535 65535 65535 65535 65535 65535 65535 65535 65535 65535 62843 62843 65535 65535 65535 65535 65535 65535 65535 65535 65535 65535 65535 65535 65535 65535 65535 65535 65535 65535 65535 65535 62843 65535 65535 65535 65535 65535 65535 65535 65535 65535 65535 65535 65535 65535 65535 65535 65535 65535 65535 65535 65535 65535 65535 65535 65535 65535 65535 65535 65535 65535 65535 65535 65535 65535
    0 0 0 0 0 0 0 0 0 0 0 0 0 0 0 0 0 0 0 0 0 0 0 0 0 0 0 0 0 0 0 0 19638 19638 19638 19638 19638 19638 19638 19638 19638 19638 19638 19638 19638 19638 19638 19638 19638 19638 19638 19638 19043 19043 19043 19043 19043 19043 19043 19638 19638 19638 19638 19638 19638 19638 19638 19043 19043 19043 19043 19043 19638 19638 19638 19638 19638 20271 20271 20271 20271 20271 19638 19638 19638 20271 20271 20271 20271 20271 20947 20947 20947 20947 20947 20947 20271 20271 20947 20947 20947 20947 20947 20271 0 0 0 0 0 0 0 0 0 0 0 0 0 0 0 0 0 0 24170 24170 24170 24170 24170 23275 23275 24170 24170 24170 24170 24170 24170 24170 24170 24170 24170 24170 0 0 0 0 0 26184 26184 25137 25137 24170 23275 22443 21670 21670 0 17955 17456 17456 17456 17456 17456 17456 17456 17955 17955 17955 17955 17955 17955 17955 17955 17955 18483 19043 19638 19638 20947 20947 20947 20947 20947 21670 21670 21670 20947 20947 20947 20271 20271 20271 20271 20947 20947 21670 22443 23275 23275 23275 23275 23275 22443 22443 23275 23275 24170 24170 24170 24170 23275 23275 23275 23275 23275 23275 23275 23275 23275 23275 23275 22443 20271 20947 22443 23275 24170 24170 24170 24170 24170 24170 24170 24170 24170 25137 25137 25137 25137 25137 24170 23275 22443 21670 20947 20947 20947 20947 20947 21670 22443 23275 24170 25137 26184 26184 26184 26184 26184 27323 27323 27323 27323 27323 27323 27323 27323 27323 27323 27323 27323 27323 27323 27323 27323 27323 27323 28565 28565 28565 28565 28565 27323 0 22443 22443 22443 22443 22443 22443 22443 22443 23275 24170 24170 25137 27323 28565 0 31421 31421 31421 31421 31421 31421 31421 31421 31421 33075 33075 33075 34912 34912 34912 34912 34912 34912 34912 33075 33075 33075 33075 33075 33075 33075 33075 33075 33075 34912 34912 34912 34912 34912 34912 34912 34912 34912 34912 34912 34912 34912 34912 36966 36966 36966 36966 36966 36966 36966 36966 36966 36966 36966 36966 36966 39276 39276 39276 39276 41895 41895 41895 44887 44887 44887 44887 44887 44887 44887 44887 44887 48340 48340 48340 48340 48340 52369 52369 52369 48340 48340 48340 48340 44887 44887 44887 0 0 0 0 0 36966 36966 36966 36966 34912 34912 34912 34912 33075 31421 29925 31421 33075 36966 39276 41895 44887 41895 41895 41895 41895 41895 41895 44887 44887 44887 44887 48340 48340 48340 48340 48340 48340 48340 48340 44887 44887 44887 44887 44887 44887 44887 48340 57130 62843 62843 62843 62843 57130 57130 52369 52369 57130 57130 62843 65535 65535 65535 65535 65535 65535 65535 65535 65535 65535 65535 62843 62843 62843 65535 65535 65535 65535 65535 65535 65535 65535 65535 65535 65535 65535 65535 65535 0 65535 62843 57130 57130 57130 57130 62843 65535 65535 65535 65535 65535 65535 65535 65535 65535 65535 65535 65535 65535 65535 65535 65535 65535 65535 65535 65535 65535 65535 65535 65535 65535 65535 65535 65535 65535 65535 65535 65535
    0 0 0 0 0 0 0 0 0 0 0 0 0 0 0 0 0 0 0 0 0 0 0 0 0 0 0 0 0 0 0 0 19638 19638 19638 19638 19638 19638 19638 19638 20271 20271 20271 20271 20271 19638 19638 19638 19638 19638 19638 19043 19043 19043 19043 19043 19043 19043 19043 19638 19638 19638 19638 19638 19638 19638 19638 19043 19043 19043 19043 19043 19043 19638 19638 19638 19638 19638 19638 19638 19638 19638 19638 19638 20271 20271 20271 20271 20271 20947 20947 20947 20947 20947 20947 20947 20271 20271 20947 20947 20947 20947 20947 20271 20271 20271 0 0 0 0 0 0 0 0 0 0 0 0 0 0 0 0 24170 24170 24170 24170 24170 24170 24170 24170 24170 24170 24170 24170 24170 24170 24170 24170 24170 24170 0 0 0 0 0 26184 26184 25137 24170 23275 22443 21670 20947 20947 19638 19043 17955 17955 17456 17456 17456 17456 17456 17955 17955 17955 17955 17955 17955 17955 17955 17955 18483 19043 19638 20271 20947 20947 20947 20947 20947 21670 22443 22443 22443 21670 21670 20947 20271 20271 20947 21670 22443 23275 23275 23275 23275 23275 23275 23275 22443 22443 23275 24170 25137 25137 24170 24170 24170 23275 23275 23275 23275 23275 23275 23275 23275 23275 23275 22443 19638 21670 22443 23275 24170 25137 25137 25137 24170 24170 24170 24170 25137 25137 25137 25137 25137 25137 24170 23275 22443 21670 20947 20947 20947 20947 20947 21670 22443 23275 25137 26184 26184 26184 26184 26184 26184 27323 27323 27323 28565 28565 27323 27323 27323 27323 28565 27323 27323 27323 27323 27323 27323 27323 27323 28565 28565 28565 28565 28565 27323 0 22443 22443 22443 22443 22443 22443 23275 23275 24170 26184 27323 27323 29925 31421 31421 33075 31421 31421 31421 31421 31421 31421 31421 33075 33075 33075 33075 34912 34912 34912 34912 34912 34912 34912 33075 33075 33075 33075 33075 33075 33075 33075 33075 33075 33075 33075 34912 34912 34912 34912 34912 34912 34912 34912 34912 34912 34912 34912 34912 36966 36966 36966 36966 36966 36966 36966 36966 36966 36966 36966 36966 36966 39276 39276 39276 41895 41895 41895 41895 41895 41895 41895 44887 44887 44887 44887 44887 48340 48340 44887 48340 48340 48340 48340 52369 48340 48340 48340 48340 44887 44887 44887 28565 28565 28565 28565 29925 33075 34912 34912 34912 36966 36966 34912 33075 31421 31421 29925 31421 31421 33075 33075 34912 36966 39276 39276 41895 41895 41895 41895 44887 44887 44887 48340 48340 48340 48340 48340 48340 52369 48340 48340 48340 44887 44887 44887 44887 44887 44887 48340 62843 62843 62843 62843 62843 57130 57130 57130 57130 57130 57130 62843 65535 65535 65535 62843 62843 62843 62843 62843 65535 62843 62843 62843 62843 62843 62843 65535 65535 65535 65535 65535 65535 65535 65535 65535 65535 65535 65535 65535 48340 57130 52369 48340 52369 52369 52369 57130 62843 62843 65535 65535 65535 65535 65535 65535 65535 65535 65535 65535 65535 62843 62843 62843 62843 65535 65535 65535 65535 62843 62843 62843 65535 65535 65535 65535 65535 65535 65535 65535
    0 0 0 0 0 0 0 0 0 0 0 0 0 0 0 0 0 0 0 0 0 0 0 0 0 0 0 0 0 0 0 0 0 19043 19043 19638 19638 19638 19638 19638 20271 20271 20271 20271 20271 19638 19638 19638 19638 19638 19043 19043 18483 18483 18483 19043 19043 19043 19043 19043 19638 19638 19638 19638 19638 19638 19638 19043 19043 19043 19043 19043 19043 19043 19638 19638 19638 19638 19638 19638 19638 19638 19638 19638 20271 20271 20271 20271 20947 20947 20947 20947 20947 20947 20947 20947 20271 20271 20271 20271 20271 20271 20271 20271 20271 20271 20271 0 0 0 0 0 0 0 0 0 0 0 0 0 0 25137 24170 24170 24170 24170 24170 24170 24170 24170 24170 24170 24170 24170 24170 24170 24170 24170 24170 24170 0 0 0 0 0 26184 26184 25137 24170 23275 21670 20947 20271 20271 19638 19043 18483 18483 17955 17456 17456 17456 17955 17955 17955 17955 17955 17955 17955 17955 17955 17955 18483 19638 20271 20947 20947 21670 20947 21670 21670 23275 23275 23275 23275 23275 22443 21670 20271 20271 22443 23275 24170 25137 24170 24170 23275 23275 23275 23275 23275 22443 22443 0 0 24170 24170 24170 24170 23275 23275 23275 23275 23275 23275 23275 23275 23275 23275 22443 20947 22443 23275 24170 25137 25137 25137 25137 25137 25137 25137 25137 25137 25137 25137 25137 25137 24170 24170 23275 22443 21670 20947 20947 21670 21670 21670 22443 23275 24170 25137 26184 26184 26184 26184 26184 26184 27323 27323 28565 28565 28565 28565 28565 28565 28565 28565 27323 27323 27323 27323 27323 27323 27323 27323 28565 28565 28565 28565 28565 27323 0 22443 22443 22443 22443 22443 23275 24170 25137 26184 28565 29925 31421 31421 31421 31421 33075 33075 31421 31421 31421 31421 31421 31421 33075 33075 33075 33075 33075 33075 33075 33075 34912 34912 33075 33075 33075 33075 33075 33075 33075 33075 33075 33075 33075 33075 33075 33075 34912 34912 34912 34912 34912 34912 34912 34912 34912 34912 34912 34912 34912 34912 34912 34912 36966 36966 36966 36966 36966 36966 36966 36966 36966 36966 39276 39276 39276 41895 41895 41895 41895 41895 41895 41895 44887 44887 44887 44887 44887 44887 44887 44887 44887 44887 48340 52369 52369 48340 48340 48340 48340 48340 41895 28565 28565 28565 28565 29925 31421 33075 33075 34912 34912 34912 34912 33075 31421 29925 29925 31421 31421 31421 31421 31421 29925 33075 34912 44887 41895 41895 44887 44887 44887 48340 48340 52369 52369 52369 52369 52369 52369 52369 52369 52369 52369 48340 48340 48340 44887 44887 52369 62843 62843 62843 62843 62843 62843 57130 57130 57130 57130 62843 62843 62843 62843 62843 62843 62843 62843 62843 62843 62843 62843 62843 62843 62843 62843 62843 62843 65535 65535 65535 65535 65535 65535 65535 65535 65535 65535 65535 62843 48340 52369 52369 48340 48340 48340 48340 52369 57130 57130 62843 65535 65535 65535 65535 65535 65535 65535 65535 65535 62843 62843 62843 62843 62843 62843 62843 62843 62843 62843 57130 57130 57130 62843 62843 62843 62843 62843 57130 52369
    0 0 0 0 0 0 0 0 0 0 0 0 0 0 0 0 0 0 0 0 0 0 0 0 0 0 0 0 0 0 0 0 0 18483 18483 19043 19043 19043 19638 19638 19638 19638 19638 19638 19638 19638 19638 19638 19043 19043 18483 18483 18483 18483 18483 18483 19043 19043 19043 19043 19043 19043 19638 19638 19638 19043 19043 19043 19043 19043 19043 19043 19043 19043 19043 19043 19638 19638 19638 19638 19638 19638 19638 19638 20271 20271 20271 20271 20947 20947 20947 20947 20947 20947 20947 20271 20271 20271 20271 20271 20271 20271 20271 20271 20271 20947 20947 20947 20271 20271 20271 0 0 0 0 0 0 0 0 0 0 25137 25137 24170 24170 24170 24170 24170 24170 24170 24170 24170 24170 24170 24170 24170 24170 24170 24170 24170 0 0 0 0 0 26184 26184 25137 24170 22443 20947 20271 20271 19638 19638 19043 19043 18483 17955 17955 17955 17955 17955 17955 18483 18483 18483 18483 18483 18483 18483 18483 19043 20271 20947 21670 22443 22443 22443 24170 25137 25137 25137 25137 25137 24170 24170 24170 25137 26184 26184 26184 25137 25137 25137 24170 24170 23275 23275 23275 23275 22443 0 0 0 24170 24170 24170 24170 23275 23275 23275 23275 23275 23275 23275 23275 23275 23275 22443 21670 23275 23275 24170 25137 25137 25137 25137 25137 25137 25137 25137 25137 25137 25137 25137 24170 23275 22443 22443 21670 21670 20947 20947 21670 21670 21670 22443 24170 25137 25137 26184 26184 26184 26184 26184 27323 27323 28565 28565 28565 28565 28565 28565 28565 28565 28565 28565 28565 27323 27323 27323 27323 27323 27323 27323 27323 27323 27323 27323 27323 0 22443 22443 23275 23275 24170 24170 26184 27323 28565 29925 31421 33075 31421 31421 31421 33075 31421 31421 31421 31421 31421 31421 31421 33075 33075 33075 33075 33075 33075 33075 33075 33075 33075 33075 33075 33075 33075 33075 33075 33075 33075 33075 33075 33075 33075 33075 33075 33075 33075 33075 33075 33075 33075 33075 34912 34912 34912 34912 34912 34912 34912 34912 34912 34912 34912 34912 34912 34912 36966 36966 36966 36966 36966 39276 39276 39276 39276 39276 41895 41895 41895 41895 41895 41895 44887 44887 44887 44887 44887 44887 44887 44887 44887 48340 48340 52369 52369 48340 48340 48340 44887 36966 29925 29925 29925 28565 29925 29925 31421 33075 33075 33075 33075 33075 31421 31421 29925 29925 31421 31421 31421 31421 31421 33075 33075 36966 48340 48340 48340 48340 48340 44887 48340 52369 52369 52369 57130 57130 57130 57130 57130 57130 57130 52369 52369 52369 48340 48340 48340 57130 62843 62843 62843 62843 62843 57130 57130 57130 57130 57130 62843 62843 62843 62843 62843 62843 62843 62843 62843 62843 62843 62843 62843 62843 57130 57130 62843 62843 62843 65535 65535 65535 65535 65535 65535 65535 65535 65535 65535 57130 48340 48340 48340 48340 48340 44887 48340 48340 52369 57130 57130 62843 65535 65535 65535 65535 65535 65535 65535 65535 62843 62843 62843 62843 62843 62843 62843 57130 57130 57130 52369 52369 57130 57130 57130 57130 57130 57130 57130 57130
    0 0 0 0 0 0 0 0 0 0 0 0 0 0 0 0 0 0 0 0 0 0 0 0 0 0 0 0 0 0 0 0 0 17955 17955 18483 18483 19043 19043 19638 19638 19638 19043 19043 19638 19638 19638 19043 19043 18483 17955 17955 17955 17955 18483 18483 18483 19043 19043 19043 18483 19043 19043 19043 19043 19043 19043 19043 19043 18483 18483 19043 19043 19043 19043 19043 19043 19043 19638 19043 19638 19638 19638 19638 19638 20271 20271 20271 20947 20947 20947 20947 20947 20947 20271 20271 20271 20271 20271 20271 20271 20271 20271 20271 20271 20947 20947 20947 20947 20947 20271 0 0 0 0 0 0 0 0 0 0 25137 25137 24170 24170 24170 24170 23275 23275 23275 24170 24170 24170 24170 24170 24170 23275 23275 23275 23275 20947 0 0 0 0 20947 20947 20271 20271 20271 19638 19638 19638 19638 19043 19043 19043 19043 18483 18483 17955 17955 17955 18483 18483 18483 18483 18483 19043 19043 19043 19043 20271 20947 21670 22443 23275 23275 23275 24170 25137 25137 25137 25137 25137 25137 25137 25137 25137 25137 26184 26184 26184 25137 25137 25137 24170 24170 24170 24170 24170 26184 29925 29925 29925 27323 24170 24170 24170 24170 23275 23275 23275 23275 23275 23275 23275 23275 23275 22443 22443 23275 24170 24170 25137 26184 26184 26184 25137 26184 26184 26184 26184 25137 25137 25137 23275 22443 21670 21670 20947 20947 20947 20947 21670 22443 22443 24170 24170 25137 25137 26184 26184 26184 26184 27323 27323 27323 28565 28565 28565 28565 28565 29925 29925 29925 28565 28565 28565 28565 27323 27323 27323 27323 28565 28565 28565 28565 28565 28565 28565 0 0 26184 25137 25137 26184 26184 27323 29925 31421 33075 33075 33075 33075 31421 31421 31421 31421 31421 31421 31421 31421 31421 31421 31421 33075 33075 33075 33075 33075 33075 33075 33075 33075 33075 33075 33075 33075 33075 33075 33075 33075 33075 33075 33075 33075 33075 33075 33075 33075 33075 33075 33075 33075 33075 33075 34912 34912 34912 34912 34912 34912 34912 34912 34912 34912 34912 34912 36966 36966 36966 36966 36966 36966 39276 39276 39276 39276 39276 39276 39276 39276 41895 41895 41895 41895 44887 44887 44887 44887 44887 44887 44887 44887 48340 48340 48340 48340 48340 52369 48340 41895 33075 29925 28565 28565 28565 28565 29925 29925 31421 31421 31421 31421 31421 29925 29925 29925 29925 31421 31421 31421 31421 33075 33075 34912 36966 44887 41895 41895 41895 41895 36966 44887 57130 57130 57130 57130 57130 57130 57130 57130 57130 57130 57130 57130 52369 52369 48340 48340 57130 62843 62843 62843 62843 57130 57130 57130 52369 52369 57130 57130 62843 62843 62843 62843 57130 57130 57130 57130 57130 62843 62843 57130 57130 57130 57130 57130 62843 62843 62843 65535 65535 65535 65535 65535 65535 65535 65535 62843 52369 48340 48340 48340 48340 44887 44887 48340 48340 52369 52369 57130 62843 62843 65535 65535 65535 65535 65535 65535 62843 62843 62843 62843 62843 62843 62843 62843 57130 57130 57130 52369 52369 52369 52369 57130 57130 57130 57130 57130 57130</data></DepthMat>
</opencv_storage>
