<?xml version="1.0"?>
<opencv_storage>
<DepthMat type_id="opencv-matrix">
  <rows>34</rows>
  <cols>512</cols>
  <dt>w</dt>
  <data>
    0 0 0 0 0 0 0 0 0 0 0 0 0 0 0 0 0 0 0 0 0 0 0 0 0 0 0 0 0 0 0 0 0 65535 65535 65535 65535 65535 65535 65535 65535 65535 65535 65535 65535 65535 65535 65535 65535 65535 65535 65535 65535 65535 65535 65535 65535 65535 65535 65535 65535 65535 65535 65535 65535 65535 65535 65535 65535 65535 65535 65535 65535 65535 65535 65535 65535 65535 65535 65535 65535 65535 65535 65535 65535 65535 65535 65535 65535 65535 65535 65535 65535 65535 65535 65535 65535 65535 65535 65535 65535 65535 65535 65535 65535 65535 65535 65535 62843 57130 57130 52369 52369 48340 44887 44887 41895 39276 36966 34912 34912 34912 33075 33075 33075 33075 33075 33075 33075 31421 31421 31421 33075 33075 33075 33075 33075 33075 33075 33075 33075 33075 31421 31421 31421 31421 31421 31421 31421 31421 31421 31421 31421 31421 29925 28565 28565 27323 26184 26184 25137 25137 25137 25137 25137 25137 25137 25137 26184 26184 26184 26184 26184 27323 27323 27323 27323 27323 27323 27323 27323 28565 28565 28565 28565 27323 27323 27323 27323 26184 26184 26184 27323 28565 29925 29925 29925 29925 29925 29925 29925 28565 28565 28565 28565 28565 27323 27323 0 0 0 0 0 0 0 0 0 0 0 0 0 0 0 20947 20947 20947 20947 20947 20947 20947 20947 20947 20947 21670 21670 21670 21670 21670 21670 21670 21670 21670 21670 21670 21670 20947 20271 19043 18483 18483 18483 18483 18483 18483 18483 18483 18483 18483 18483 18483 18483 18483 18483 18483 17955 17955 17955 17955 17955 17955 17955 17955 17955 17955 17955 17955 17955 17456 0 0 0 0 0 0 0 0 0 0 0 0 0 16984 16113 16113 16113 16537 16113 16113 15710 15327 14962 15710 15710 16984 18483 19638 20271 20271 19638 18483 17955 17955 17456 17456 17456 17955 0 0 0 0 0 0 0 0 0 0 0 0 0 13965 13965 13965 13965 13965 0 0 0 0 0 13965 13965 13965 13965 13661 13661 13370 13092 13092 13092 13092 13092 13370 13370 13661 13661 13965 13965 14282 14282 14614 14614 14962 14962 14962 14962 14962 14962 14962 14962 14962 14962 14962 14614 14962 14962 14962 14962 15327 15327 14962 14962 14962 14962 14962 14962 14614 14614 14614 14962 14962 14962 14962 15327 0 0 0 13661 13661 13661 13661 13661 13661 13661 13661 13661 13661 0 0 0 0 0 0 0 0 0 0 0 11221 11221 11857 12322 11857 11637 11637 11426 11221 11426 11426 11426 11637 11426 11426 11426 11426 11426 0 0 0 0 0 13661 13092 13092 13092 12825 12568 12322 12085 11637 11637 11637 11426 11637 11637 11637 11857 12085 12568 12825 13092 13092 13370 13370 13370 13370 13370 0 0 10651 10651 10651 10651 10835 10835 10835 10835 10835 10835 10835 10835 10651 10651 10651 10651 10651 10651 10651 10651 10835 10835 10835 10835 10835 10835 10835 10835 10835 10835 10835 10835 10835 10835 10835 10835 10651 10473 10473 10302 10302 10302 10302 10302
    0 0 0 0 0 0 0 0 0 0 0 0 0 0 0 0 0 0 0 0 0 0 0 0 0 0 0 0 0 0 0 0 0 65535 65535 65535 65535 65535 65535 65535 65535 65535 65535 65535 65535 65535 65535 65535 65535 65535 65535 65535 65535 65535 65535 65535 65535 65535 65535 65535 65535 65535 65535 65535 65535 65535 65535 65535 65535 65535 65535 65535 65535 65535 65535 65535 65535 65535 65535 65535 65535 65535 65535 65535 65535 65535 65535 65535 65535 65535 65535 65535 65535 65535 65535 65535 65535 65535 65535 65535 65535 65535 65535 65535 65535 65535 65535 62843 62843 57130 57130 52369 48340 48340 44887 41895 39276 36966 34912 34912 33075 33075 33075 33075 33075 33075 33075 33075 31421 31421 31421 31421 33075 33075 33075 33075 33075 33075 33075 33075 33075 33075 31421 31421 31421 31421 31421 31421 31421 31421 31421 31421 31421 29925 29925 28565 27323 27323 26184 26184 25137 25137 25137 25137 25137 25137 25137 25137 26184 26184 26184 26184 27323 27323 27323 27323 27323 27323 27323 27323 27323 28565 28565 28565 28565 28565 28565 27323 27323 0 0 0 24170 26184 27323 28565 28565 28565 28565 28565 28565 28565 28565 28565 28565 27323 27323 27323 0 0 0 0 0 0 0 0 0 0 0 0 0 0 0 20947 20947 20947 20947 20947 20947 20947 20947 20947 20947 22443 22443 21670 21670 21670 21670 21670 21670 21670 21670 21670 21670 21670 20271 19043 19043 19043 18483 18483 18483 18483 18483 18483 18483 18483 18483 18483 18483 18483 18483 18483 18483 18483 17955 17955 17955 17955 17955 17955 17955 17955 17955 17955 17955 17456 0 0 0 0 0 0 0 0 0 0 0 0 0 16984 16113 16113 16113 16113 15327 15327 14962 14962 14962 15710 16113 16984 17456 19043 19638 19638 19638 17456 16984 16537 16113 16113 16113 15710 0 0 0 0 0 0 0 0 0 0 0 0 0 13965 13965 13965 13965 13965 0 0 0 0 0 13965 13965 13965 13661 13661 13370 13370 13092 13092 13092 13092 13092 13092 13370 13370 13661 13661 13965 13965 14282 14614 14614 14614 14614 14614 14614 14614 14962 14962 14962 14962 14962 14962 14614 14614 14962 14962 14962 15327 15327 15327 14962 14962 14962 14962 14962 14614 14614 14614 14962 14962 14962 14962 15327 0 0 13661 13661 13661 13661 13661 13661 13661 13661 13661 0 0 0 0 0 0 0 0 0 0 0 0 0 0 0 13965 13370 12085 11857 11637 11426 11426 11426 11426 11426 11637 11426 11426 11637 11857 12085 12568 13370 13370 0 11637 12322 12085 12085 12322 12085 12085 11857 11857 11637 11637 11637 11637 11637 11637 11637 11637 11857 12322 12568 12825 13092 13370 13370 13370 13370 13370 0 10651 10651 10651 10651 10651 10835 10835 10835 10835 10835 10835 10651 10651 10651 10651 10651 10651 10651 10651 10651 10651 10835 10835 10835 10835 10835 10835 10835 10835 10835 10835 10835 10835 10835 10835 10835 10651 10651 10651 10473 10473 10473 10473 10473 10473
    0 0 0 0 0 0 0 0 0 0 0 0 0 0 0 0 0 0 0 0 0 0 0 0 0 0 0 0 0 0 0 0 0 65535 65535 65535 65535 65535 65535 65535 65535 65535 65535 65535 65535 65535 65535 65535 65535 65535 65535 65535 65535 65535 65535 65535 65535 65535 65535 65535 65535 65535 65535 65535 65535 65535 65535 65535 65535 65535 65535 65535 65535 65535 65535 65535 65535 65535 65535 65535 65535 65535 65535 65535 65535 65535 65535 65535 65535 65535 65535 65535 65535 65535 65535 65535 65535 65535 65535 65535 62843 62843 62843 62843 62843 62843 62843 57130 57130 57130 52369 52369 48340 44887 41895 39276 36966 34912 34912 33075 33075 33075 33075 33075 33075 33075 31421 31421 31421 31421 31421 33075 33075 33075 33075 33075 33075 33075 33075 33075 33075 33075 31421 31421 31421 31421 31421 31421 31421 31421 31421 31421 31421 29925 29925 28565 27323 26184 26184 26184 25137 25137 25137 25137 25137 25137 25137 25137 26184 26184 26184 26184 27323 27323 27323 27323 27323 27323 27323 27323 27323 28565 28565 28565 28565 28565 28565 28565 27323 0 0 20947 22443 24170 25137 26184 27323 27323 28565 28565 28565 28565 28565 28565 27323 27323 27323 27323 0 0 0 0 0 0 0 0 0 0 0 0 0 0 0 20947 20947 20947 20947 20947 20947 20947 20947 20947 20947 21670 22443 22443 22443 22443 21670 21670 21670 21670 21670 21670 21670 20947 20271 19638 19043 19043 19043 18483 18483 18483 18483 18483 18483 18483 18483 18483 18483 18483 18483 18483 18483 18483 17955 17955 17955 17955 17955 17955 17955 17955 17955 17456 17456 17456 0 0 0 0 0 0 0 0 0 0 0 0 0 15710 15710 15710 15710 14962 14614 13965 13965 14282 14614 15710 16113 17955 18483 19043 0 0 0 14282 14962 14962 14962 14962 14962 13965 0 0 0 0 0 0 0 0 0 0 0 0 13661 13661 13661 13661 13661 13661 13370 13370 13370 12322 12322 13092 13370 13370 13661 13370 13370 13092 13092 12825 12825 12825 13092 13092 13370 13370 13661 13661 13965 13965 14282 14282 14282 14614 14614 14614 14614 14614 14614 14962 14962 14962 14962 14614 14614 14614 14614 14962 14962 15327 15327 15327 15327 14962 14962 14962 14962 14614 14614 14614 14962 14962 14962 14962 15327 13661 13661 13661 13661 13661 13661 13661 13661 13661 13661 13661 0 0 0 0 0 0 0 0 0 0 0 0 0 0 0 0 13965 12085 11637 11637 11637 11426 11426 11426 11637 11637 11426 11426 11637 11857 12085 12568 13370 13370 11637 11637 12085 11857 11857 11857 11857 11637 11637 11637 11637 11637 11426 11426 11637 11637 11637 11637 11857 12085 12322 12568 12825 13370 13370 13370 12825 11857 10651 10651 10651 10651 10651 10651 10835 10835 10835 10651 10651 10651 10651 10651 10651 10651 10651 10651 10651 10651 10651 10651 10835 10835 10835 10835 10835 10835 10835 10835 10835 10835 10835 10835 10835 10835 10651 10651 10651 10651 10651 10473 10473 10473 10651 10651
    0 0 0 0 0 0 0 0 0 0 0 0 0 0 0 0 0 0 0 0 0 0 0 0 0 0 0 0 0 0 0 0 0 65535 65535 65535 65535 65535 65535 65535 65535 65535 65535 65535 65535 65535 65535 65535 65535 65535 65535 65535 65535 65535 65535 65535 65535 65535 65535 65535 65535 65535 65535 65535 65535 65535 65535 65535 65535 65535 65535 65535 65535 65535 65535 65535 65535 65535 65535 65535 65535 65535 65535 65535 65535 65535 65535 65535 65535 65535 65535 65535 65535 65535 65535 65535 65535 65535 65535 65535 62843 57130 57130 52369 52369 52369 57130 57130 57130 52369 52369 52369 48340 41895 39276 36966 34912 34912 33075 33075 33075 33075 31421 31421 31421 31421 31421 31421 31421 31421 33075 33075 33075 33075 33075 33075 33075 33075 33075 33075 33075 33075 31421 31421 31421 31421 31421 31421 31421 31421 31421 31421 31421 29925 29925 28565 27323 26184 26184 26184 26184 25137 25137 25137 25137 25137 25137 26184 26184 26184 26184 26184 27323 27323 27323 27323 27323 27323 27323 27323 27323 28565 28565 28565 28565 28565 28565 27323 27323 0 0 20947 22443 22443 23275 24170 25137 26184 27323 28565 28565 27323 27323 27323 27323 27323 27323 27323 0 0 0 0 0 0 0 0 0 0 0 0 0 0 0 20947 20947 20947 20947 20947 20947 20947 20947 20947 20947 20947 21670 21670 22443 22443 21670 21670 21670 21670 21670 21670 20947 20947 20271 19638 19043 19043 19043 19043 18483 19043 19043 19043 19043 18483 18483 18483 18483 18483 18483 18483 18483 18483 17955 17955 17955 17955 17955 17955 17955 17955 17955 17456 17456 0 0 0 0 0 0 0 0 0 0 0 16984 16984 16984 16984 16537 15710 15710 14614 13965 13661 13661 14282 14614 15710 16984 19043 19638 19638 19638 19638 0 14282 14614 14614 14614 14614 14614 13965 0 0 0 0 0 0 0 0 0 0 0 0 13661 13661 13661 13661 13661 13370 13370 13370 13370 12568 12322 12825 13092 13370 13370 13370 13370 13092 13092 12825 12825 12825 12825 13092 13092 13370 13370 13661 13661 13965 13965 14282 14282 14282 14282 14282 14282 14614 14614 14614 14614 14962 14962 14614 14614 14614 14614 14614 14962 14962 15327 15327 15327 14962 14962 14962 14962 14614 14614 14614 14962 14962 14962 14962 14614 13661 13661 13661 13661 13661 13661 13661 13661 13661 13661 13661 0 0 0 0 0 0 0 0 0 0 0 0 0 0 0 0 12568 11637 11426 11426 11426 11426 11426 11637 11637 11637 11426 11426 11637 11857 12085 12568 13370 12825 11637 11637 11857 11857 11857 11857 11857 11637 11637 11637 11637 11426 11426 11426 11637 11637 11637 11637 11637 11857 12085 12568 12825 13370 13370 13370 12085 11221 10651 10651 10651 10651 10651 10651 10651 10651 10651 10651 10651 10651 10651 10651 10651 10651 10651 10651 10651 10651 10651 10651 10651 10835 10835 10651 10651 10651 10651 10651 10651 10651 10651 10651 10651 10651 10651 10651 10651 10651 10651 10651 10473 10651 10651 10651
    0 0 0 0 0 0 0 0 0 0 0 0 0 0 0 0 0 0 0 0 0 0 0 0 0 0 0 0 0 0 0 0 0 65535 65535 65535 65535 65535 65535 65535 65535 65535 65535 65535 65535 65535 65535 65535 65535 65535 65535 65535 65535 65535 65535 65535 65535 65535 65535 65535 65535 65535 65535 65535 65535 65535 65535 65535 65535 65535 65535 65535 65535 65535 65535 65535 65535 65535 65535 65535 65535 65535 65535 65535 65535 65535 65535 65535 65535 65535 65535 65535 65535 65535 65535 65535 65535 65535 65535 62843 62843 57130 52369 52369 52369 52369 52369 52369 52369 52369 52369 48340 44887 39276 36966 34912 33075 33075 33075 33075 31421 31421 31421 31421 31421 31421 31421 31421 31421 31421 33075 33075 33075 33075 33075 33075 33075 33075 33075 33075 33075 33075 31421 31421 31421 31421 31421 31421 31421 31421 31421 31421 29925 29925 28565 28565 27323 26184 26184 26184 26184 26184 26184 26184 26184 26184 25137 26184 26184 26184 26184 26184 26184 26184 26184 26184 26184 26184 26184 26184 27323 27323 28565 27323 28565 27323 27323 27323 27323 0 0 20947 21670 21670 22443 23275 24170 25137 27323 27323 27323 27323 27323 27323 27323 27323 27323 26184 0 0 0 0 0 0 0 0 0 0 0 0 0 0 0 20947 20947 20947 20947 20947 20947 20947 20947 20947 20947 20947 21670 21670 21670 21670 21670 21670 21670 21670 21670 20947 20947 20271 19638 19638 19043 19043 19043 19043 18483 19043 19043 19043 19043 19043 19043 19043 19043 19043 19043 18483 18483 18483 18483 17955 17955 17955 17955 17955 17955 17955 0 0 0 0 0 0 0 0 0 0 0 0 0 16984 16984 16984 16984 16984 16984 16984 0 13965 13370 13370 13370 14282 14962 16113 17456 19638 19638 19638 19638 18483 16537 15327 14962 14962 14614 14614 14614 15327 16113 16113 16113 16113 15710 15710 15710 15710 0 0 0 0 13661 13661 13661 13661 13661 13661 13370 13370 13370 12825 12568 12825 13092 13092 13370 13370 13370 13092 12825 12825 12825 12825 12825 13092 13092 13370 13370 13661 13661 13661 13965 13965 14282 14282 14282 14282 14282 14282 14282 14614 14614 14614 14614 14282 14282 14282 14282 14282 14614 14962 15327 15327 15327 15327 14962 14962 14962 14614 14614 14614 14614 14282 14282 13661 13661 13661 13661 13661 13661 13661 13661 13661 13661 13661 13661 13661 0 0 0 0 0 0 0 0 0 0 0 0 0 0 0 0 11221 11221 11221 11221 11426 11426 11426 11637 11637 11426 11426 11426 11637 11857 12085 12322 13370 12825 11637 11637 11857 11857 11857 11857 11857 11637 11637 11637 11426 11426 11426 11426 11637 11637 11637 11637 11637 11637 11857 12322 12568 13092 13092 13092 11221 10651 10651 10651 10651 10651 10651 10651 10651 10651 10651 10651 10651 10651 10651 10651 10651 10651 10651 10651 10651 10651 10651 10651 10651 10651 10651 10651 10651 10651 10651 10651 10651 10651 10651 10651 10651 10651 10651 10651 10651 10651 10651 10473 10473 10473 10651 10651
    0 0 0 0 0 0 0 0 0 0 0 0 0 0 0 0 0 0 0 0 0 0 0 0 0 0 0 0 0 0 0 0 0 65535 65535 65535 65535 65535 65535 65535 65535 65535 65535 65535 65535 65535 65535 65535 65535 65535 65535 65535 65535 65535 65535 65535 65535 65535 65535 65535 65535 65535 65535 65535 65535 65535 65535 65535 65535 65535 65535 65535 65535 65535 65535 65535 65535 65535 65535 65535 65535 65535 65535 65535 65535 65535 65535 65535 65535 65535 65535 65535 65535 65535 65535 65535 65535 65535 65535 62843 57130 57130 52369 52369 52369 52369 52369 52369 52369 52369 52369 44887 39276 36966 34912 33075 33075 33075 31421 31421 31421 31421 31421 31421 31421 31421 31421 31421 31421 31421 33075 33075 33075 33075 33075 33075 33075 33075 33075 33075 33075 33075 31421 31421 31421 31421 31421 31421 31421 31421 31421 31421 29925 29925 28565 28565 27323 27323 26184 26184 26184 26184 26184 26184 26184 26184 26184 26184 26184 26184 26184 26184 26184 26184 26184 26184 26184 26184 26184 26184 27323 27323 27323 27323 27323 27323 27323 27323 0 0 0 21670 21670 20947 21670 22443 23275 24170 26184 27323 27323 27323 27323 27323 27323 27323 27323 26184 0 0 0 0 0 0 0 0 0 0 0 0 0 0 0 21670 21670 20947 20947 20947 20947 20947 20947 20947 20947 20947 21670 21670 21670 21670 21670 21670 21670 21670 20947 20947 20271 20271 19638 19043 19043 19043 19043 19043 18483 19043 19043 19043 19043 19043 19043 19043 19043 19043 19043 19043 18483 18483 18483 18483 18483 18483 18483 18483 18483 17955 0 0 0 0 0 0 0 0 0 0 0 0 0 16984 16984 16984 16984 16984 16984 16984 16537 13092 13092 13092 13092 14614 15710 16984 18483 19638 19638 19638 19043 17955 16537 16113 15710 15327 15327 14962 15327 15710 16113 16113 16113 16113 15710 15710 15710 15710 0 0 0 0 13661 13661 13661 13661 13661 13661 13370 13370 13370 13092 12825 13092 13092 13092 13370 13370 13092 13092 12825 12825 12825 12825 12825 13092 13092 13370 13370 13370 13661 13661 13965 13965 13965 14282 14282 14282 14282 14282 14282 14282 14282 14282 14282 14282 13965 13965 13965 13965 13965 14614 15327 15327 15327 15327 14962 0 0 13661 13661 13661 13661 13661 13661 13661 13661 13661 13661 13661 13661 13661 13661 13661 13661 13661 13661 13661 0 0 0 0 0 0 0 0 0 0 0 0 0 0 0 0 11221 11221 11221 11221 11426 11426 11637 11637 11637 11426 11426 11426 11637 11637 11857 12085 12825 12825 11637 11637 11637 11637 11637 11637 11637 11637 11637 11426 11426 11426 11426 11426 11426 11426 11426 11426 11426 11426 11637 11857 12085 12568 13092 11857 10651 10651 10651 10651 10651 10651 10651 10651 10651 10651 10651 10651 10651 10473 10473 10473 10651 10651 10651 10651 10651 10651 10651 10651 10651 10651 10651 10651 10651 10473 10473 10473 10473 10473 10473 10473 10473 10473 10473 10473 10651 10651 10473 10473 10473 10473 10473 10473
    0 0 0 0 0 0 0 0 0 0 0 0 0 0 0 0 0 0 0 0 0 0 0 0 0 0 0 0 0 0 0 0 0 65535 65535 65535 65535 65535 65535 65535 65535 65535 65535 65535 65535 65535 65535 65535 65535 65535 65535 65535 65535 65535 65535 65535 65535 65535 65535 65535 65535 65535 65535 65535 65535 65535 65535 65535 65535 65535 65535 65535 65535 65535 65535 65535 65535 65535 65535 65535 65535 65535 65535 65535 65535 65535 65535 65535 65535 65535 65535 65535 65535 65535 65535 65535 65535 65535 62843 62843 57130 52369 52369 52369 52369 52369 52369 52369 52369 52369 48340 41895 34912 33075 33075 33075 31421 31421 31421 31421 31421 31421 31421 31421 31421 31421 31421 31421 31421 31421 33075 33075 33075 33075 33075 33075 33075 33075 33075 33075 33075 33075 31421 31421 31421 31421 31421 31421 31421 31421 31421 31421 29925 29925 28565 28565 27323 27323 27323 26184 26184 26184 26184 26184 26184 26184 26184 26184 26184 26184 26184 26184 26184 26184 26184 26184 26184 26184 26184 26184 27323 27323 27323 27323 27323 27323 26184 26184 26184 0 28565 23275 22443 22443 22443 22443 23275 24170 26184 27323 27323 27323 27323 28565 28565 28565 28565 28565 28565 28565 28565 0 0 0 0 0 0 0 20947 20947 20947 20947 21670 21670 21670 21670 20947 20947 20947 20947 20947 20947 20947 20947 20947 21670 21670 21670 21670 20947 20947 20947 20271 19638 19638 19638 19043 19043 19043 19043 19043 18483 18483 18483 19043 19043 19043 19043 19043 19043 19043 19043 19043 19043 19043 18483 18483 18483 18483 18483 18483 18483 18483 17955 0 0 0 0 0 0 0 0 0 0 0 0 0 16984 16984 16984 16984 16984 16984 16984 16537 15327 13965 13092 13092 15327 16537 17955 19043 19638 19638 19638 18483 17456 16537 16537 16113 15710 15710 15710 15710 15710 16113 16113 16113 16113 15710 15710 15710 15710 0 0 0 0 13661 13661 13661 13661 13661 13661 13661 13370 13370 13370 13092 13092 13370 13370 13370 13370 13370 13092 13092 12825 12825 12825 12825 12825 13092 13370 13370 13370 13661 13661 13965 13965 13965 14282 14282 14282 14282 14282 14282 14282 14282 14282 13965 13965 13965 13965 13965 13965 13661 13661 0 0 0 0 0 0 0 13661 13661 13661 13661 13661 13661 13661 13661 13661 13661 13661 13661 13661 13661 13661 13661 13661 13661 0 0 0 0 0 0 0 0 0 0 0 0 0 0 0 0 0 11221 11221 11221 11221 11426 11426 11637 11637 11637 11637 11426 11426 11426 11637 11637 11857 12322 12322 11637 11637 11637 11637 11637 11637 11637 11637 11426 11426 11426 11221 11221 11221 11426 11426 11426 11426 11426 11221 11221 11221 11025 11025 0 10651 10651 10651 10651 10651 10651 10651 10651 10651 10651 10651 10651 10651 10473 10473 10473 10473 10473 10651 10651 10651 10651 10651 10651 10651 10651 10651 10651 10473 10473 10473 10302 10302 10302 10302 10135 10135 10302 10302 10302 10473 10473 10473 10473 10473 10473 10473 10302 10473
    0 0 0 0 0 0 0 0 0 0 0 0 0 0 0 0 0 0 0 0 0 0 0 0 0 0 0 0 0 0 0 0 0 65535 65535 65535 65535 65535 65535 65535 65535 65535 65535 65535 65535 65535 65535 65535 65535 65535 65535 65535 65535 65535 65535 65535 65535 65535 65535 65535 65535 65535 65535 65535 65535 65535 65535 65535 65535 65535 65535 65535 65535 65535 65535 65535 65535 65535 65535 65535 65535 65535 65535 65535 65535 65535 65535 65535 65535 65535 65535 65535 65535 65535 65535 65535 65535 62843 62843 57130 57130 52369 52369 52369 52369 52369 52369 52369 52369 48340 44887 36966 33075 33075 31421 31421 31421 31421 31421 31421 31421 31421 31421 31421 31421 31421 31421 31421 31421 31421 31421 33075 33075 33075 33075 33075 33075 33075 33075 33075 33075 31421 31421 31421 29925 29925 29925 29925 29925 31421 31421 29925 29925 29925 28565 28565 28565 27323 27323 27323 26184 26184 26184 26184 26184 26184 26184 26184 26184 26184 26184 26184 26184 26184 26184 26184 26184 26184 26184 26184 26184 27323 27323 27323 27323 26184 26184 26184 26184 28565 28565 25137 24170 24170 23275 23275 24170 25137 26184 27323 27323 27323 27323 27323 28565 28565 28565 28565 28565 28565 28565 28565 0 0 0 0 0 0 20947 20947 20947 20947 21670 21670 21670 21670 21670 20947 20947 20947 20947 20947 20947 20947 20947 21670 21670 21670 20947 20947 20271 19638 19638 19043 19043 19043 19043 19043 18483 18483 18483 18483 18483 18483 18483 18483 18483 19043 19043 19043 19043 19043 19043 19043 19043 18483 18483 18483 18483 18483 18483 18483 18483 17955 17955 0 0 0 0 0 0 0 0 0 0 0 0 16984 16984 16984 16984 16984 16984 16984 16537 16537 15327 13092 13092 16537 17456 18483 19043 19638 19638 19043 17955 17456 16537 16537 16537 16113 16113 16113 16113 16113 16113 16113 16113 16113 15710 15710 15710 15710 0 0 0 0 13661 13661 13661 13661 13661 13661 13661 13370 13370 13370 13370 13370 13370 13370 13370 13370 13370 13092 13092 12825 12825 12825 12825 12825 13092 13092 13370 13370 13661 13661 13965 13965 13965 14282 14282 14282 14282 14282 14282 14282 14282 13965 13965 13965 13965 13965 13965 13965 13661 13661 0 0 0 0 0 0 0 13661 13661 13661 13661 13661 13661 13661 13661 13661 13661 13661 13661 13661 13661 13661 13661 13661 13661 0 0 0 0 0 0 0 0 0 0 0 0 0 0 0 0 0 11221 11221 11221 11221 11221 11426 11637 11637 11637 11857 11637 11426 11426 11637 11426 11426 11637 11637 11637 11637 11637 11637 11637 11637 11637 11426 11426 11426 11221 11221 11221 11221 11221 11221 11221 11221 11221 11221 11025 11025 10835 10835 10651 10651 10651 10651 10651 10651 10651 10651 10651 10651 10651 10651 10651 10651 10651 10473 10473 10473 10473 10651 10651 10651 10651 10651 10651 10651 10651 10473 10473 10473 10473 10302 10302 10302 10302 10135 10135 10135 10302 10302 10302 10302 10302 10473 10302 10302 10302 10302 10302 10302
    0 0 0 0 0 0 0 0 0 0 0 0 0 0 0 0 0 0 0 0 0 0 0 0 0 0 0 0 0 0 0 0 0 65535 65535 65535 65535 65535 65535 65535 65535 65535 65535 65535 65535 65535 65535 65535 65535 65535 65535 65535 65535 65535 65535 65535 65535 65535 65535 65535 65535 65535 65535 65535 65535 65535 65535 65535 65535 65535 65535 65535 65535 65535 65535 65535 65535 65535 65535 65535 65535 65535 65535 65535 65535 65535 65535 65535 65535 65535 65535 65535 65535 65535 65535 65535 62843 62843 57130 57130 52369 52369 48340 48340 48340 48340 52369 52369 52369 44887 39276 34912 31421 31421 31421 31421 31421 31421 31421 31421 31421 31421 31421 31421 31421 31421 31421 31421 31421 31421 31421 33075 33075 33075 33075 33075 33075 33075 33075 33075 33075 31421 31421 31421 29925 29925 29925 29925 29925 29925 29925 29925 29925 29925 28565 28565 28565 27323 27323 27323 27323 26184 26184 26184 26184 26184 26184 26184 26184 26184 26184 26184 26184 26184 26184 26184 26184 26184 26184 26184 26184 26184 26184 26184 26184 26184 26184 26184 27323 28565 28565 27323 26184 25137 25137 24170 25137 25137 26184 27323 27323 27323 27323 27323 28565 28565 28565 28565 28565 28565 28565 28565 27323 0 0 0 0 0 20947 20947 21670 21670 21670 21670 21670 21670 21670 21670 20947 20947 20947 20271 20947 20947 20947 20947 20947 20947 20947 20271 20271 19638 19043 18483 18483 18483 18483 18483 18483 18483 18483 18483 18483 18483 18483 18483 18483 19043 19043 19043 19043 19043 19043 19043 19043 18483 18483 18483 18483 18483 18483 17955 17955 17955 17955 17456 17955 17955 17955 17955 17955 17456 17456 0 0 0 0 16984 16984 16984 16984 16984 16984 16984 16984 16984 16984 16984 0 19638 19638 19638 19638 19638 19638 19043 17456 16984 16537 16537 16537 16113 16113 16113 15710 15710 16113 16113 16113 16113 16113 16113 16113 16113 16113 0 0 0 13661 13661 13661 13661 13661 13661 13661 13370 13370 13370 13370 13370 13370 13370 13370 13370 13370 13092 13092 12825 12825 12825 12825 12825 13092 13092 13370 13370 13661 13661 13965 13965 13965 14282 14282 14282 14282 14282 14282 14282 14282 13965 13965 13965 13965 13965 13965 13661 13661 13661 13661 0 0 0 0 0 13965 13965 13965 13965 13965 13661 13661 13661 0 0 13661 13661 13661 13661 13661 13661 13661 13661 13661 0 0 0 0 0 0 0 0 0 0 0 0 0 0 0 0 0 0 0 0 0 0 0 0 12568 12568 12568 12322 11857 11637 11637 11426 11221 11221 0 11637 11637 11637 11637 11637 11637 11426 11426 11426 11221 11221 11221 11221 11221 11221 11221 11221 11221 11025 11025 11025 10835 10835 10651 10651 10651 10651 10651 10651 10651 10651 10651 10651 10651 10651 10651 10651 10651 10651 10651 10473 10473 10473 10651 10651 10651 10651 10473 10473 10473 10473 10473 10473 10473 10302 10302 10302 10135 10135 10135 10135 10135 10302 10302 10302 10302 10302 10302 10135 10135 10135 10135 10135 10302
    0 0 0 0 0 0 0 0 0 0 0 0 0 0 0 0 0 0 0 0 0 0 0 0 0 0 0 0 0 0 0 0 0 65535 65535 65535 65535 65535 65535 65535 65535 65535 65535 65535 65535 65535 65535 65535 65535 65535 65535 65535 65535 65535 65535 65535 65535 65535 65535 65535 65535 65535 65535 65535 65535 65535 65535 65535 65535 65535 65535 65535 65535 65535 65535 65535 65535 65535 65535 65535 65535 65535 65535 65535 65535 65535 65535 65535 65535 65535 65535 65535 65535 65535 65535 65535 62843 62843 57130 57130 52369 52369 48340 48340 48340 48340 48340 48340 44887 39276 34912 33075 31421 31421 31421 31421 31421 29925 29925 29925 29925 31421 31421 31421 31421 31421 31421 31421 31421 31421 31421 33075 33075 33075 33075 33075 33075 33075 33075 33075 31421 31421 31421 29925 29925 29925 29925 29925 31421 31421 31421 31421 29925 29925 28565 28565 28565 27323 27323 27323 27323 26184 26184 26184 26184 26184 26184 26184 26184 26184 26184 26184 26184 26184 25137 25137 26184 26184 26184 26184 26184 26184 26184 27323 27323 27323 27323 27323 28565 28565 28565 28565 27323 26184 26184 26184 26184 26184 26184 27323 27323 27323 27323 27323 28565 28565 28565 28565 28565 28565 28565 28565 27323 0 0 0 0 0 20947 20947 21670 21670 21670 21670 21670 21670 21670 21670 20947 20947 20947 20271 20947 20947 20947 20947 20947 20271 20271 20271 19638 19638 19043 18483 18483 18483 18483 18483 18483 18483 18483 18483 18483 18483 18483 18483 18483 19043 19043 19043 19043 19043 19043 19043 19043 18483 18483 18483 18483 18483 18483 17955 17955 17955 17955 17955 17955 17955 17955 17456 17456 17456 17456 16984 0 0 16984 16984 16984 16984 16984 16984 16984 16984 16984 16984 16984 16984 16984 19043 19638 19638 19638 19638 19638 17955 16984 16537 16537 16537 16537 16113 16113 15710 15710 15710 15710 16113 16113 16113 16113 16113 16113 16113 16113 0 0 0 13661 13661 13661 13661 13661 13661 13370 13370 13370 13370 13370 13370 13370 13370 13370 13370 13370 13092 13092 12825 12825 12825 12825 12825 13092 13092 13370 13370 13661 13661 13965 13965 13965 14282 14282 14282 14282 14282 14282 14282 13965 13965 13965 13965 13965 13965 13661 13661 13661 13661 13661 0 0 0 0 0 13965 13965 13965 13965 13965 13661 13661 13661 0 0 0 0 0 13661 13661 13661 13661 13661 13661 0 0 0 0 0 0 0 0 0 0 0 0 0 0 0 0 0 0 0 0 0 0 0 0 13661 13661 13370 12825 12568 12085 11857 11426 11221 11221 0 0 11637 11637 11637 11637 11426 11426 11426 11426 11221 11221 11221 11221 11025 11025 11025 11025 11025 11025 11025 10835 10835 10835 10651 10651 10651 10651 10651 10651 10651 10651 10651 10651 10651 10651 10651 10651 10651 10651 10651 10651 10473 10473 10473 10473 10473 10473 10473 10473 10473 10473 10473 10473 10302 10302 10302 10135 10135 10135 10135 10135 10135 10302 10302 10302 10302 10473 10135 9819 9975 9975 9975 9975 10135
    0 0 0 0 0 0 0 0 0 0 0 0 0 0 0 0 0 0 0 0 0 0 0 0 0 0 0 0 0 0 0 0 0 65535 65535 65535 65535 65535 65535 65535 65535 65535 65535 65535 65535 65535 65535 65535 65535 65535 65535 65535 65535 65535 65535 65535 65535 65535 65535 65535 65535 65535 65535 65535 65535 65535 65535 65535 65535 65535 65535 65535 65535 65535 65535 65535 65535 65535 65535 65535 65535 65535 65535 65535 65535 65535 65535 65535 65535 65535 65535 65535 65535 65535 65535 65535 62843 62843 57130 57130 52369 52369 48340 44887 44887 41895 41895 36966 31421 31421 31421 31421 31421 31421 31421 29925 29925 29925 29925 29925 29925 31421 31421 31421 31421 31421 31421 31421 31421 31421 31421 33075 33075 33075 33075 33075 33075 33075 33075 33075 31421 31421 31421 29925 29925 29925 29925 29925 31421 31421 31421 31421 29925 29925 29925 28565 28565 27323 27323 27323 27323 26184 26184 26184 26184 26184 26184 26184 26184 26184 25137 25137 25137 25137 25137 25137 25137 25137 26184 26184 26184 26184 27323 27323 27323 27323 27323 27323 28565 28565 28565 28565 28565 27323 27323 27323 27323 26184 27323 27323 27323 27323 27323 27323 28565 28565 28565 28565 28565 28565 28565 28565 27323 0 0 0 0 0 20947 21670 21670 21670 21670 21670 21670 21670 21670 21670 20947 20947 20947 20271 20947 20947 20271 20271 20271 20271 20271 19638 19638 19043 19043 18483 18483 18483 18483 18483 18483 18483 18483 18483 18483 18483 18483 18483 19043 19043 19043 19043 19043 19043 19043 19043 18483 18483 18483 18483 18483 18483 17955 17955 17955 17955 17955 17955 17955 17955 17955 17456 17456 17456 17456 17456 17456 17456 17456 16984 16984 16984 16984 16984 16984 16984 16984 16984 16984 16984 16984 17955 18483 19638 19638 19638 0 16537 16537 16537 16537 16537 16113 16113 15710 15710 15710 15710 16113 16113 16113 16113 16113 16113 16113 16113 16537 16537 16537 16537 13661 13661 13661 13661 13370 13370 13370 13370 13370 13370 13370 13370 13370 13370 13370 13370 13092 13092 13092 12825 12825 12825 12825 12825 13092 13092 13370 13370 13661 13661 13965 13965 13965 13965 14282 14282 14282 13965 13965 13965 13965 13965 13965 13965 13965 13661 13661 13661 13661 13661 13661 0 13661 13661 13965 13965 13965 13965 13965 13965 13965 13965 13965 13965 13965 0 0 0 0 0 0 0 0 0 0 0 0 0 0 0 0 0 0 0 0 0 0 0 0 0 0 0 0 0 0 0 0 0 13661 13661 13661 13661 13370 12825 12322 12322 11637 11221 11221 0 0 0 0 11637 11426 11426 11426 11426 11426 11221 11221 11221 11025 11025 11025 11025 11025 11025 11025 10835 10835 10835 10651 10651 10651 10651 10651 10651 10651 10651 10651 10651 10651 10651 10651 10651 10651 10651 10651 10651 10651 10473 10473 10473 10473 10473 10473 10473 10473 10473 10473 10473 10473 10302 10302 10302 10135 10135 10135 10135 10135 10135 10302 10302 10302 10302 10473 10135 9668 9819 9819 9819 9819 9819
    0 0 0 0 0 0 0 0 0 0 0 0 0 0 0 0 0 0 0 0 0 0 0 0 0 0 0 0 0 0 0 0 0 65535 65535 65535 65535 65535 65535 65535 65535 65535 65535 65535 65535 65535 65535 65535 65535 65535 65535 65535 65535 65535 65535 65535 65535 65535 65535 65535 65535 65535 65535 65535 65535 65535 65535 65535 65535 65535 65535 65535 65535 65535 65535 65535 65535 65535 65535 65535 65535 65535 65535 65535 65535 65535 65535 65535 65535 65535 65535 65535 65535 65535 65535 65535 62843 62843 57130 57130 52369 52369 48340 44887 41895 41895 39276 34912 33075 31421 31421 31421 31421 31421 29925 29925 29925 29925 29925 29925 31421 31421 31421 31421 31421 31421 31421 31421 31421 31421 31421 33075 33075 33075 33075 33075 33075 33075 33075 33075 33075 31421 31421 29925 29925 29925 29925 31421 31421 31421 31421 31421 31421 29925 29925 28565 28565 28565 27323 27323 27323 26184 26184 26184 25137 25137 25137 25137 25137 25137 25137 25137 25137 25137 25137 25137 25137 25137 25137 26184 26184 26184 27323 27323 27323 27323 27323 27323 28565 28565 28565 28565 28565 27323 27323 27323 27323 27323 27323 27323 27323 27323 27323 27323 28565 28565 28565 28565 28565 28565 28565 28565 27323 0 0 0 0 21670 21670 21670 21670 21670 21670 21670 20947 20947 20947 20947 20947 20947 20947 0 0 20271 20271 20271 20271 20271 19638 19638 19043 19043 18483 18483 18483 17955 17955 17955 18483 18483 18483 18483 18483 18483 18483 18483 19043 19043 19043 19043 19043 19043 19043 18483 18483 18483 18483 17955 17955 17955 17955 17955 17955 17955 17955 17955 17955 17955 17955 17456 17456 17456 17456 17456 17456 17456 17456 17456 16984 16984 16984 16984 16984 16984 16984 16984 16984 16984 16984 16984 16984 0 0 0 0 16537 16537 16537 16537 16537 16113 16113 15710 15710 15710 15710 16113 16113 16113 16113 16113 16537 16537 16537 16537 16537 16537 16537 14962 13661 13370 13370 13370 13370 13370 13370 13370 13370 13370 13370 13370 13092 13092 13092 13092 13092 13092 12825 12825 12825 12825 12825 13092 13092 13370 13661 13661 13661 13965 13965 13965 13965 13965 13965 13965 13965 13965 13965 13965 13965 13965 13965 13965 13661 13661 13661 13661 13661 13661 13661 13661 13661 13965 13965 13965 13965 13965 13965 13965 13965 13965 13965 13965 0 0 0 0 0 0 0 0 0 0 0 0 0 0 0 0 0 0 0 0 0 0 0 0 0 0 0 0 0 0 0 0 0 13661 13661 13661 13661 13661 13092 12825 12322 11857 11221 11221 0 0 0 0 0 11221 11221 11221 11221 11221 11221 11221 11221 11025 11025 11025 11025 11025 11025 10835 10835 10835 10835 10651 10651 10651 10651 10651 10651 10651 10651 10651 10651 10651 10651 10651 10651 10651 10651 10651 10651 10651 10473 10473 10473 10473 10473 10473 10473 10473 10473 10302 10302 10302 10302 10302 10302 10135 10135 10135 10135 10135 10135 10302 10302 10302 10302 10473 10135 9819 9668 9668 9668 9668 9668
    0 0 0 0 0 0 0 0 0 0 0 0 0 0 0 0 0 0 0 0 0 0 0 0 0 0 0 0 0 0 0 0 0 65535 65535 65535 65535 65535 65535 65535 65535 65535 65535 65535 65535 65535 65535 65535 65535 65535 65535 65535 65535 65535 65535 65535 65535 65535 65535 65535 65535 65535 65535 65535 65535 65535 65535 65535 65535 65535 65535 65535 65535 65535 65535 65535 65535 65535 65535 65535 65535 65535 65535 65535 65535 65535 65535 65535 65535 65535 65535 65535 65535 65535 65535 65535 65535 62843 62843 57130 57130 52369 48340 44887 41895 39276 36966 34912 33075 31421 31421 31421 31421 31421 29925 29925 29925 29925 29925 31421 31421 31421 31421 31421 33075 33075 33075 33075 33075 33075 33075 33075 33075 33075 33075 33075 33075 33075 33075 33075 33075 31421 31421 31421 29925 29925 31421 31421 31421 33075 33075 33075 31421 31421 29925 29925 28565 28565 28565 27323 27323 26184 26184 25137 25137 25137 25137 25137 25137 25137 25137 25137 25137 25137 25137 25137 25137 25137 25137 26184 26184 26184 27323 27323 27323 27323 27323 28565 28565 28565 28565 28565 28565 27323 27323 27323 27323 27323 27323 27323 27323 27323 27323 27323 28565 28565 28565 28565 27323 27323 26184 25137 24170 23275 23275 22443 22443 22443 21670 21670 21670 21670 20947 20947 20947 20947 20947 20947 20271 20271 20271 19638 0 20271 20271 19638 19638 19638 19638 19043 19043 18483 18483 18483 18483 17955 17955 17955 17955 17955 18483 18483 18483 18483 18483 18483 19043 19043 19043 19043 19043 19043 18483 18483 18483 18483 18483 17955 17955 17955 17955 17955 17955 17955 17955 17955 17955 17955 17955 17456 17456 17456 17456 17456 17456 17456 17456 17456 16984 16984 16984 16984 16984 16984 17456 17456 16984 16984 16984 16984 16984 16984 16984 0 0 0 16537 16537 16537 16537 16113 16113 15710 15710 15710 16113 16113 16537 16537 16537 16537 16537 16537 16537 16537 16537 16537 16537 16537 14282 13370 13370 13370 13370 13370 13370 13370 13370 13370 13092 13092 13092 13092 13092 13092 13092 12825 12825 12825 12825 12825 12825 13092 13092 13370 13661 13661 13661 13965 13965 13965 13965 13965 13965 13965 13965 13965 13965 13965 13965 13965 13965 13965 13661 13661 13661 13661 13661 13661 13661 13661 13661 13965 13965 13965 13965 13965 13965 13965 13965 13965 13965 13965 0 0 0 0 0 0 0 0 0 0 0 0 0 0 0 0 0 0 0 0 0 0 0 0 0 0 0 0 0 0 0 0 0 13661 13661 13661 13661 13661 13370 13092 12825 12322 11426 11426 0 0 0 0 0 11221 11221 11426 11637 11426 11426 11426 11221 11025 11025 11025 11025 11025 11025 11025 10835 10835 10835 10651 10651 10473 10651 10651 10651 10651 10651 10651 10651 10651 10651 10651 10835 10835 10651 10651 10651 10651 10473 10473 10473 10473 10473 10473 10302 10302 10302 10302 10302 10302 10302 10302 10302 10135 10135 10135 10135 10135 10302 10302 10302 10302 10302 10302 10135 9819 9668 9668 9521 9521 9521
    0 0 0 0 0 0 0 0 0 0 0 0 0 0 0 0 0 0 0 0 0 0 0 0 0 0 0 0 0 0 0 0 0 65535 65535 65535 65535 65535 65535 65535 65535 65535 65535 65535 65535 65535 65535 65535 65535 65535 65535 65535 65535 65535 65535 65535 65535 65535 65535 65535 65535 65535 65535 65535 65535 65535 65535 65535 65535 65535 65535 65535 65535 65535 65535 65535 65535 65535 65535 65535 65535 65535 65535 65535 65535 65535 65535 65535 65535 65535 65535 65535 65535 65535 65535 65535 65535 65535 62843 57130 57130 52369 48340 44887 39276 36966 36966 34912 33075 33075 31421 31421 31421 31421 31421 31421 31421 31421 31421 31421 31421 31421 31421 33075 33075 33075 33075 33075 33075 33075 33075 33075 33075 33075 33075 34912 34912 34912 33075 33075 33075 33075 31421 31421 29925 31421 31421 33075 33075 33075 33075 33075 33075 31421 29925 29925 28565 28565 28565 27323 27323 26184 26184 25137 25137 25137 24170 24170 24170 24170 24170 25137 25137 25137 25137 25137 25137 25137 25137 26184 26184 26184 27323 27323 27323 27323 28565 28565 28565 28565 28565 28565 28565 27323 27323 27323 27323 27323 27323 27323 27323 27323 27323 27323 27323 27323 27323 26184 25137 25137 24170 24170 23275 23275 22443 22443 22443 22443 21670 21670 21670 20947 20947 20947 20947 20271 20271 20271 20271 20271 19638 19638 0 19638 19638 19638 19638 19638 19043 19043 18483 18483 18483 18483 18483 17955 17955 17955 17955 17955 17955 18483 18483 18483 18483 19043 19043 19043 19043 19043 19043 18483 18483 18483 18483 18483 17955 17955 17955 17955 17955 17955 17955 17955 17955 17955 17955 17955 17955 17456 17456 17456 17456 17456 17456 17456 17456 17456 17456 17456 17456 17456 17456 17456 17456 17456 16984 16984 16984 16984 16984 16984 16984 16537 16537 16537 16537 16537 16537 16537 16113 16113 16113 16113 16113 16113 16537 16537 16537 16537 16537 16537 16537 16537 16537 16537 16537 16537 16537 15327 13092 13370 13370 13370 13370 13370 13370 13370 13370 13092 13092 13092 13092 13092 13092 13092 12825 12825 12825 12825 12825 12825 13092 13092 13370 13661 13661 13661 13965 13965 13965 13965 13965 13965 13965 13965 13965 13965 13965 13965 13965 13965 13661 13661 13661 13661 13661 13661 13661 13661 13661 13661 13965 13965 13965 13965 13965 13965 13965 13965 13965 13965 13965 0 0 0 0 0 0 0 0 0 0 0 0 0 0 0 0 0 0 0 0 0 0 0 0 0 0 0 0 0 0 0 0 0 13661 13661 13661 13661 13661 13661 13370 12825 12568 11426 11426 0 0 0 0 0 11221 11221 11637 11637 11637 11637 11426 11426 11221 11025 11025 11025 11025 11025 11025 10835 10835 10835 10651 10651 10651 0 10651 10651 10651 10651 10651 10651 10651 10651 10835 10835 10835 10651 10651 10651 10651 10473 10473 10473 10473 10302 10302 10302 10302 10302 10302 10302 10302 10302 10302 10302 10135 10135 10135 10135 10135 10302 10302 10302 10302 10302 10302 10135 9975 9668 9521 9379 9379 9379
    0 0 0 0 0 0 0 0 0 0 0 0 0 0 0 0 0 0 0 0 0 0 0 0 0 0 0 0 0 0 0 0 0 65535 65535 65535 65535 65535 65535 65535 65535 65535 65535 65535 65535 65535 65535 65535 65535 65535 65535 65535 65535 65535 65535 65535 65535 65535 65535 65535 65535 65535 65535 65535 65535 65535 65535 65535 65535 65535 65535 65535 65535 65535 65535 65535 65535 65535 65535 65535 65535 65535 65535 65535 65535 65535 65535 65535 65535 65535 65535 65535 65535 65535 65535 65535 65535 65535 62843 62843 57130 57130 48340 41895 39276 36966 34912 34912 33075 33075 31421 31421 31421 31421 31421 31421 31421 31421 31421 31421 31421 31421 33075 33075 33075 33075 33075 33075 33075 33075 33075 33075 33075 33075 34912 34912 34912 34912 33075 33075 33075 33075 31421 31421 31421 31421 33075 33075 33075 34912 33075 33075 33075 33075 31421 29925 28565 28565 28565 27323 27323 26184 26184 25137 25137 25137 24170 24170 24170 24170 24170 24170 24170 24170 24170 25137 25137 25137 25137 26184 26184 26184 27323 27323 27323 27323 27323 28565 28565 28565 28565 27323 27323 27323 27323 27323 27323 27323 27323 27323 27323 27323 27323 27323 26184 25137 24170 23275 23275 23275 23275 23275 23275 23275 22443 22443 22443 22443 21670 21670 21670 20947 20947 20947 20271 20271 20271 20271 19638 19638 19638 19638 19043 19638 19638 19638 19638 19043 19043 18483 18483 18483 17955 17955 17955 17955 17955 17955 17955 17955 17955 18483 18483 18483 18483 19043 19043 19043 19043 19043 18483 18483 18483 18483 18483 18483 17955 17955 17955 17955 17955 17955 17955 17955 17955 17955 17955 17955 17955 17456 17456 17456 17456 17456 17456 17456 17456 17456 17456 17456 17456 17456 17456 17456 17456 17456 16984 16984 16984 16984 16984 16984 16984 16537 16537 16537 16537 16537 16537 16537 16113 16113 16113 16113 16113 16537 16537 16537 16537 16537 16537 16537 16537 16537 16537 16537 16537 16537 16537 15710 13092 13370 13370 13370 13370 13370 13370 13370 13370 13092 13092 13092 13092 13092 13092 13092 12825 12825 12825 12825 12825 12825 13092 13092 13370 13661 13661 13661 13661 13661 13661 13661 13661 13661 13661 13661 13661 13661 13661 13661 13661 13661 13661 13661 13661 13661 13661 13661 13661 13661 13661 13661 13965 13965 13965 13965 13965 13965 13965 13965 13965 13965 13965 0 0 0 0 0 0 0 0 0 0 0 0 0 0 0 0 0 0 0 0 0 0 0 0 0 0 0 0 0 0 0 0 0 13661 13661 13661 13661 13661 13661 13661 13661 13661 0 0 0 0 0 0 0 0 11221 11857 11857 11857 11637 11637 11426 11426 11025 11025 11025 11025 11025 11025 10835 10835 10835 10835 10651 10651 0 0 10651 10651 10651 10651 10651 10651 10651 10835 10835 10835 10651 10651 10651 10651 10473 10473 10473 10302 10302 10302 10302 10302 10302 10302 10302 10302 10302 10302 10302 10135 10135 10135 10302 10302 10302 10302 10302 10302 10302 10302 10135 9975 9819 9521 9379 9379 9379
    0 0 0 0 0 0 0 0 0 0 0 0 0 0 0 0 0 0 0 0 0 0 0 0 0 0 0 0 0 0 0 0 0 65535 65535 65535 65535 65535 65535 65535 65535 65535 65535 65535 65535 65535 65535 65535 65535 65535 65535 65535 65535 65535 65535 65535 65535 65535 65535 65535 65535 65535 65535 65535 65535 65535 65535 65535 65535 65535 65535 65535 65535 65535 65535 65535 65535 65535 65535 65535 65535 65535 65535 65535 65535 65535 65535 65535 65535 65535 65535 65535 65535 65535 65535 65535 65535 65535 62843 62843 57130 57130 48340 41895 36966 34912 34912 34912 33075 33075 33075 31421 31421 31421 31421 31421 31421 31421 31421 31421 33075 33075 33075 33075 33075 33075 33075 33075 33075 33075 33075 33075 33075 33075 33075 33075 33075 33075 33075 33075 33075 31421 31421 29925 29925 31421 33075 34912 34912 34912 34912 34912 34912 33075 31421 29925 28565 28565 28565 27323 27323 26184 26184 25137 25137 25137 24170 24170 24170 24170 24170 24170 24170 24170 24170 25137 25137 25137 25137 25137 26184 26184 26184 27323 27323 27323 27323 27323 27323 27323 27323 27323 27323 27323 27323 27323 27323 27323 27323 27323 27323 27323 27323 27323 25137 24170 23275 23275 23275 22443 22443 22443 22443 22443 22443 22443 22443 22443 21670 21670 21670 20947 20947 20947 20271 20271 20271 19638 19638 19638 19638 19043 19043 19638 19638 19638 19043 19043 18483 18483 17955 17955 17955 17955 17955 17955 17955 17955 17955 17955 17955 18483 18483 18483 18483 18483 18483 18483 18483 18483 18483 18483 18483 18483 18483 18483 17955 17955 17955 17955 17955 17955 17955 17955 17955 17955 17955 17955 17955 17456 17456 17456 17456 17456 17456 17456 17456 17456 17456 17456 17456 17456 17456 17456 17456 17456 16984 16984 16984 16984 16984 16984 16984 16537 16537 16537 16537 16537 16537 16537 16537 16537 16537 16537 16537 16537 16537 16537 16984 16984 16984 16984 16984 16984 16984 16984 16984 16984 16984 16984 13092 13370 13370 13370 13370 13370 13370 13370 13092 13092 13092 13092 13092 13092 13092 13092 12825 12825 12825 12825 12825 12825 13092 13092 13370 13661 13661 13661 13661 13661 13661 13661 13661 13661 13661 13661 13661 13661 13661 13661 13661 13661 13661 13661 13661 13661 13661 13661 13661 13661 13661 13661 13661 13965 13965 13965 13965 13965 13965 13965 13965 13965 13965 0 0 0 0 0 0 0 0 0 0 0 0 0 0 0 0 0 0 0 0 0 0 0 0 0 0 0 0 0 0 0 0 0 13661 13661 13661 13661 13661 13661 13661 0 0 0 0 0 0 0 0 0 0 0 12322 12322 12322 11857 11857 11637 11426 11025 11025 11025 11025 11025 11025 11025 10835 10835 10835 10651 10651 10651 0 0 0 0 0 10651 10651 10651 10835 10835 10835 10835 10651 10651 10651 10473 10473 10473 10302 10302 10302 10302 10302 10302 10302 10302 10302 10302 10302 10302 10302 10302 10302 10302 10302 10302 10302 10302 10302 10302 10135 10135 9819 9668 9521 9379 9379 9379
    0 0 0 0 0 0 0 0 0 0 0 0 0 0 0 0 0 0 0 0 0 0 0 0 0 0 0 0 0 0 0 0 0 65535 65535 65535 65535 65535 65535 65535 65535 65535 65535 65535 65535 65535 65535 65535 65535 65535 65535 65535 65535 65535 65535 65535 65535 65535 65535 65535 65535 65535 65535 65535 65535 65535 65535 65535 65535 65535 65535 65535 65535 65535 65535 65535 65535 65535 65535 65535 65535 65535 65535 65535 65535 65535 65535 65535 65535 65535 65535 65535 65535 65535 65535 65535 65535 65535 62843 62843 57130 52369 44887 39276 34912 34912 34912 34912 33075 33075 33075 33075 31421 31421 31421 31421 31421 31421 33075 33075 33075 33075 33075 33075 33075 33075 33075 33075 33075 33075 33075 33075 33075 33075 33075 33075 33075 33075 31421 31421 31421 31421 29925 29925 28565 29925 31421 33075 33075 33075 33075 33075 33075 31421 29925 28565 28565 28565 27323 27323 27323 26184 26184 25137 25137 25137 24170 24170 24170 24170 24170 24170 24170 24170 24170 25137 25137 25137 25137 25137 25137 26184 26184 26184 27323 27323 27323 27323 27323 27323 27323 27323 27323 27323 27323 27323 27323 27323 27323 27323 27323 27323 27323 25137 24170 23275 23275 23275 22443 22443 22443 22443 22443 22443 22443 22443 22443 22443 21670 21670 21670 20947 20947 20947 20271 20271 20271 19638 19638 19638 19043 19043 18483 19043 19043 19043 19043 18483 18483 17955 17955 17955 17955 17955 17955 17955 17955 17955 17955 17955 17955 18483 18483 18483 18483 18483 18483 18483 18483 18483 18483 18483 18483 18483 18483 18483 17955 17955 17955 17955 17955 17955 17955 17955 17955 17955 17955 17955 17955 17456 17456 17456 17456 17456 17456 17456 17456 17456 17456 17456 17456 16984 16984 16984 16984 16984 16984 16984 16984 16984 16984 16984 16984 16537 16537 16537 16537 16537 16537 16537 16537 16537 16537 16537 16537 16537 16537 16984 16984 16984 16984 16984 16984 16984 16984 16984 16984 16984 16984 16984 16537 13370 13370 13370 13370 13370 13370 13370 13092 13092 13092 13092 13092 13092 13092 13092 12825 12825 12825 12825 12825 12825 13092 13092 13370 13661 13661 13661 13661 13661 13661 13661 13661 13661 13661 13661 13661 13661 13661 13661 13661 13661 13661 13661 13661 13661 13965 13965 13965 13965 13965 13965 13661 13661 13661 13661 13965 13965 13965 13965 14282 14282 14282 14614 14614 14614 14614 14614 0 0 0 0 0 0 0 0 0 0 0 0 0 0 0 0 0 0 0 0 0 0 0 0 0 0 0 0 13661 13661 13661 13661 13661 13661 13661 0 0 0 0 0 0 0 0 0 0 0 13661 13661 13092 12322 12085 11857 11637 11025 11025 11025 11025 11025 11025 11025 10835 10835 10651 10651 10473 10473 10135 0 0 0 0 10651 10651 10651 10835 10835 10835 10835 10651 10651 10651 10473 10473 10473 10302 10302 10302 10302 10135 10135 10135 10135 10135 10302 10302 10302 10302 10302 10302 10302 10302 10302 10302 10302 10135 10135 9975 9819 9668 9668 9521 9379 9379 9379
    0 0 0 0 0 0 0 0 0 0 0 0 0 0 0 0 0 0 0 0 0 0 0 0 0 0 0 0 0 0 0 0 0 65535 65535 65535 65535 65535 65535 65535 65535 65535 65535 65535 65535 65535 65535 65535 65535 65535 65535 65535 65535 65535 65535 65535 65535 65535 65535 65535 65535 65535 65535 65535 65535 65535 65535 65535 65535 65535 65535 65535 65535 65535 65535 65535 65535 65535 65535 65535 65535 65535 65535 65535 65535 65535 65535 65535 65535 65535 65535 65535 65535 65535 65535 65535 65535 65535 62843 62843 57130 52369 41895 36966 34912 34912 34912 34912 33075 33075 33075 33075 31421 31421 31421 33075 33075 33075 33075 33075 33075 33075 33075 33075 33075 33075 33075 33075 33075 33075 33075 33075 33075 33075 33075 33075 31421 31421 31421 29925 29925 29925 28565 28565 28565 28565 29925 31421 31421 31421 33075 31421 31421 29925 28565 27323 27323 27323 27323 27323 27323 26184 26184 26184 25137 25137 25137 24170 24170 24170 24170 24170 24170 24170 24170 25137 25137 25137 25137 25137 25137 25137 26184 26184 26184 27323 27323 27323 27323 27323 27323 27323 27323 27323 27323 27323 27323 27323 27323 27323 27323 26184 25137 24170 23275 23275 23275 22443 22443 22443 22443 22443 22443 22443 22443 22443 22443 22443 21670 21670 21670 20947 20947 20947 20271 20271 20271 19638 19638 19043 19043 18483 18483 18483 18483 18483 18483 18483 17955 17955 17955 17955 17955 17955 17955 17955 17955 17955 17955 17955 17955 18483 18483 18483 18483 18483 18483 18483 18483 18483 18483 18483 18483 18483 17955 17955 17955 17955 17955 17955 17955 17955 17955 17955 17955 17955 17955 17955 17955 17456 17456 17456 17456 17456 17456 17456 17456 17456 17456 17456 17456 16984 16984 16984 16984 16984 16984 16984 16984 16984 16984 16984 16984 16537 16537 16537 16537 16537 16537 16537 16537 16537 16537 16537 16537 16537 16984 16984 16984 16984 16984 16984 16984 16984 16984 16984 16984 16984 16984 16984 16537 14282 13370 13370 13370 13370 13370 13092 13092 13092 13092 13092 13092 13092 13092 13092 13092 12825 12825 12825 12825 12825 12825 13092 13370 13661 13661 13661 13661 13661 13661 13661 13661 13661 13661 13661 13661 13661 13661 13661 13661 13661 13661 13661 13661 13965 13965 13965 13965 13965 13965 13965 13965 13965 13965 13965 13965 13965 13965 14282 14282 14282 14614 14614 14614 14614 14614 14614 14614 0 0 0 0 0 0 0 0 0 0 0 0 0 0 0 0 0 0 0 0 0 0 0 0 0 0 0 13661 13661 13661 13661 13661 13661 0 0 0 0 0 0 0 0 0 0 0 0 0 0 13661 12322 12322 12322 12322 11025 0 11025 11025 11025 11025 10835 10835 10651 10651 10473 10473 10302 10135 10135 0 0 10473 10473 10473 10473 10651 10651 10835 10651 10651 10651 10473 10473 10473 10302 10302 10302 10302 10135 10135 10135 10135 10135 10135 10135 10135 10302 10302 10302 10302 10302 10302 10302 10302 10135 10135 9975 9819 9668 9521 9521 9379 9379 9379 9379
    0 0 0 0 0 0 0 0 0 0 0 0 0 0 0 0 0 0 0 0 0 0 0 0 0 0 0 0 0 0 0 0 0 65535 65535 65535 65535 65535 65535 65535 65535 65535 65535 65535 65535 65535 65535 65535 65535 65535 65535 65535 65535 65535 65535 65535 65535 65535 65535 65535 65535 65535 65535 65535 65535 65535 65535 65535 65535 65535 65535 65535 65535 65535 65535 65535 65535 65535 65535 65535 65535 65535 65535 65535 65535 0 65535 65535 65535 65535 65535 65535 65535 65535 65535 65535 65535 65535 62843 57130 57130 48340 39276 34912 34912 34912 34912 34912 33075 33075 33075 33075 33075 33075 33075 33075 33075 33075 33075 33075 33075 33075 33075 33075 33075 33075 33075 33075 33075 33075 33075 33075 33075 33075 33075 31421 31421 31421 29925 29925 29925 28565 28565 27323 27323 27323 28565 29925 29925 29925 29925 29925 29925 28565 28565 27323 27323 27323 27323 27323 27323 26184 26184 26184 25137 25137 25137 25137 25137 24170 24170 24170 24170 24170 24170 25137 25137 25137 25137 25137 25137 25137 25137 25137 26184 26184 26184 27323 27323 27323 27323 27323 27323 27323 27323 27323 27323 27323 27323 26184 26184 25137 24170 24170 23275 23275 22443 22443 22443 22443 22443 22443 22443 22443 22443 22443 22443 22443 21670 21670 21670 20947 20947 20947 20271 20271 19638 19638 19043 19043 18483 18483 18483 18483 18483 18483 18483 17955 17955 17955 17955 17955 17955 17955 17955 17955 17955 17955 17955 17955 17955 17955 18483 18483 18483 18483 18483 18483 18483 18483 18483 18483 17955 17955 17955 17955 17955 17955 17955 17955 17955 17955 17955 17955 17955 17955 17955 17955 17955 17456 17456 17456 17456 16984 17456 17456 17456 17456 17456 17456 17456 16984 16984 16984 16984 16984 16984 16984 16984 16984 16984 16537 16537 16113 15710 16113 16537 16537 16537 16537 16537 16537 16537 16537 16537 16537 16984 16984 16984 16984 16984 16984 16984 16984 16984 16984 16984 16984 16984 16984 16537 14962 13370 13370 13370 13370 13370 13092 13092 13092 13092 13092 13092 13092 13092 13092 13092 12825 12825 12825 12825 12825 12825 13092 13370 13370 13661 13661 13661 13661 13661 13661 13661 13661 13661 13661 13661 13661 13661 13661 13661 13661 13661 13661 13661 13661 13965 13965 13965 13965 13965 13965 13965 13965 13965 13965 13965 13965 13965 14282 14282 14614 14614 14614 14614 14614 14614 14614 14614 0 0 0 0 0 0 0 0 0 0 0 0 0 0 0 0 0 0 0 0 0 0 0 0 0 0 0 0 0 0 0 0 0 0 0 0 0 0 0 0 0 0 0 10473 10473 10473 10473 10473 10473 10473 10473 10473 10473 10473 10473 11025 11025 10835 10835 10651 10651 10473 10473 10473 10302 10302 10302 10473 10473 10473 10473 10473 10473 10473 10473 10651 10651 10651 10473 10473 10473 10302 10302 10302 10302 10302 10135 10135 10135 10135 10135 10135 10135 10135 10302 10302 10302 10302 10302 10302 10302 10302 10135 9975 9819 9668 9521 9379 9379 9379 9379 9241 9241
    0 0 0 0 0 0 0 0 0 0 0 0 0 0 0 0 0 0 0 0 0 0 0 0 0 0 0 0 0 0 0 0 0 65535 65535 65535 65535 65535 65535 65535 65535 65535 65535 65535 65535 65535 65535 65535 65535 65535 65535 65535 65535 65535 65535 65535 65535 65535 65535 65535 65535 65535 65535 65535 65535 65535 65535 65535 65535 65535 65535 65535 65535 65535 65535 65535 65535 65535 65535 65535 65535 65535 65535 65535 65535 62843 65535 65535 65535 65535 65535 65535 65535 65535 65535 65535 65535 65535 62843 62843 57130 44887 36966 34912 34912 34912 33075 33075 33075 33075 33075 33075 33075 33075 33075 33075 33075 33075 33075 33075 33075 33075 33075 33075 33075 33075 33075 33075 33075 33075 33075 33075 33075 33075 31421 31421 31421 29925 29925 28565 28565 27323 27323 27323 27323 27323 27323 28565 28565 28565 28565 28565 28565 28565 27323 27323 27323 27323 27323 27323 27323 26184 26184 26184 26184 25137 25137 25137 25137 24170 24170 24170 24170 24170 24170 24170 24170 24170 24170 24170 25137 25137 25137 25137 25137 26184 26184 26184 26184 27323 27323 27323 27323 27323 27323 27323 27323 26184 26184 26184 25137 25137 24170 23275 23275 23275 22443 22443 22443 22443 22443 22443 22443 22443 22443 22443 22443 22443 22443 21670 21670 20947 20947 20947 20271 20271 19638 19638 19043 19043 18483 18483 18483 17955 17955 17955 17955 17955 17955 17955 17955 17456 17955 17955 17955 17955 17955 17955 17955 17955 17955 17955 17955 18483 18483 18483 18483 18483 18483 18483 18483 17955 17955 17955 17955 17955 17955 18483 18483 18483 18483 17955 17955 17955 17955 17955 17955 17456 17456 17456 17456 17456 17456 16984 16984 16984 16984 16984 16984 16984 16984 16984 16984 16984 16984 16984 16984 16984 16984 16984 16537 16537 16113 15710 15710 15327 15710 16113 16537 16537 16537 16537 16537 16537 16537 16537 16984 16984 16984 16984 16984 16984 16984 16984 16984 16984 16984 16984 16984 16984 16537 16537 13370 13370 13370 13370 13370 13092 13092 13092 13092 13092 13092 13092 13092 13092 13092 12825 12825 12825 12825 12825 12825 13092 13370 13370 13661 13661 13661 13661 13661 13661 13661 13661 13661 13661 13661 13661 13661 13661 13661 13661 13661 13661 13661 13661 13965 13965 13965 13965 13965 13965 13965 13965 13965 13965 13965 13965 13965 14282 14614 14614 14614 14614 14614 14614 14614 14614 14614 0 0 0 0 0 0 0 0 0 0 0 0 0 0 0 0 0 0 0 0 0 0 0 0 0 0 0 0 0 0 0 0 0 0 0 0 0 0 0 0 0 0 0 10473 10473 10473 10473 10473 10473 10473 10473 10651 10651 10651 10651 0 10835 10835 10651 10651 10651 10473 10473 10473 10473 10302 10473 10473 10473 10473 10473 10473 10473 10473 10473 10473 10473 10473 10473 10473 10302 10302 10302 10302 10302 10302 10302 10135 10135 10135 10135 10135 10135 10302 10302 10302 10302 10302 10135 10135 10135 10135 9975 9819 9521 9521 9379 9241 9241 9241 9241 9241 9241
    0 0 0 0 0 0 0 0 0 0 0 0 0 0 0 0 0 0 0 0 0 0 0 0 0 0 0 0 0 0 0 0 0 65535 65535 65535 65535 65535 65535 65535 65535 65535 65535 65535 65535 65535 65535 65535 65535 65535 65535 65535 65535 65535 65535 65535 65535 65535 65535 65535 65535 65535 65535 65535 65535 65535 65535 65535 65535 65535 65535 65535 65535 65535 65535 65535 65535 65535 65535 65535 65535 65535 65535 65535 65535 62843 62843 65535 65535 65535 65535 65535 65535 65535 65535 65535 65535 62843 62843 57130 48340 36966 34912 34912 33075 33075 33075 33075 33075 33075 33075 33075 33075 33075 33075 33075 33075 33075 33075 33075 33075 33075 33075 33075 33075 33075 33075 33075 33075 33075 33075 33075 33075 31421 31421 31421 31421 29925 29925 28565 28565 27323 27323 27323 27323 27323 27323 27323 27323 28565 28565 28565 28565 27323 27323 27323 27323 27323 27323 27323 27323 26184 26184 26184 26184 25137 25137 25137 25137 24170 24170 24170 24170 24170 24170 24170 24170 24170 24170 24170 24170 24170 25137 25137 25137 25137 26184 26184 26184 26184 26184 27323 27323 27323 27323 26184 26184 26184 25137 25137 25137 24170 23275 23275 23275 22443 22443 22443 22443 21670 22443 22443 22443 22443 22443 22443 22443 22443 22443 21670 21670 20947 20947 20271 20271 19638 19638 19043 19043 18483 18483 18483 17955 17955 17955 17955 17955 17955 17955 17955 17955 17955 17955 17955 17955 17955 17955 18483 18483 18483 18483 18483 18483 18483 17955 17955 17955 17955 17955 17955 17955 17955 17955 17955 17955 17955 18483 18483 18483 18483 18483 17955 17955 17955 17955 17955 17456 17456 17456 17456 17456 17456 17456 16984 16984 16984 16984 16984 16984 16984 16984 16984 16984 16984 16984 16984 16984 16984 16984 16537 16113 16113 15710 15327 15327 15327 15327 15710 16537 16537 16537 16537 16537 16113 16113 16537 16537 16984 16984 16984 16984 16984 16984 16984 16984 16984 16984 16984 16537 16537 16537 16113 0 13092 13092 13092 13092 13092 13092 13092 13092 13092 13092 13092 13092 13092 13092 13092 12825 12825 12825 12825 12825 13092 13092 13370 13661 13661 13661 13661 13661 13661 13661 13661 13661 13661 13661 13661 13661 13661 13661 13661 13661 13661 13661 13661 13965 13965 13965 13965 13965 13965 13965 13965 13965 13965 13965 13965 14282 14282 14614 14614 14614 14614 14614 14614 14614 14614 14614 0 0 0 0 0 0 0 0 0 0 0 0 0 0 0 0 0 0 0 0 0 0 0 0 0 0 0 0 0 0 0 0 0 0 0 0 0 0 0 0 0 0 0 10473 10473 10473 10473 10473 10473 10473 10651 10651 10651 10835 10835 10835 10835 10651 10651 10473 10473 10473 10302 10302 10473 10473 10473 10473 10473 10473 10473 10473 10473 10473 10473 10473 10473 10473 10302 10302 10302 10302 10302 10302 10302 10302 10302 10135 10135 10135 10135 10135 10302 10302 10302 10302 10135 10135 10135 10135 10135 10135 9975 9668 9521 9379 9241 9241 9241 9241 9241 9241 9241
    0 0 0 0 0 0 0 0 0 0 0 0 0 0 0 0 0 0 0 0 0 0 0 0 0 0 0 0 0 0 0 0 0 65535 65535 65535 65535 65535 65535 65535 65535 65535 65535 65535 65535 65535 65535 65535 65535 65535 65535 65535 65535 65535 65535 65535 65535 65535 65535 65535 65535 65535 65535 65535 65535 65535 65535 65535 65535 65535 65535 65535 65535 65535 65535 65535 65535 65535 65535 65535 65535 65535 65535 65535 65535 62843 62843 62843 62843 65535 65535 65535 65535 62843 57130 57130 57130 57130 52369 44887 39276 34912 34912 33075 33075 33075 33075 33075 33075 33075 33075 33075 33075 33075 33075 33075 33075 33075 33075 33075 33075 33075 33075 33075 33075 33075 33075 33075 33075 31421 31421 31421 31421 31421 31421 31421 31421 29925 29925 29925 28565 28565 27323 27323 27323 27323 27323 27323 27323 27323 27323 28565 28565 27323 27323 27323 27323 27323 27323 27323 27323 27323 26184 26184 26184 25137 25137 25137 25137 24170 24170 24170 24170 24170 24170 24170 24170 24170 24170 24170 24170 24170 24170 25137 25137 25137 25137 25137 26184 26184 26184 26184 26184 26184 26184 26184 25137 25137 25137 24170 24170 24170 23275 23275 22443 22443 22443 22443 21670 21670 21670 21670 22443 22443 22443 22443 22443 22443 22443 22443 21670 20947 20271 20271 19638 19638 19043 19043 19043 18483 18483 17955 17955 17955 17955 17955 17955 17955 17955 17955 17955 17955 17955 17955 17955 18483 18483 18483 18483 18483 18483 18483 18483 18483 17955 17955 17955 17955 17955 17955 17955 17955 17955 17955 17955 17955 18483 18483 18483 18483 18483 17955 17955 17955 17955 17456 17456 17456 17456 17456 17456 17456 17456 16984 16984 16984 16984 16984 16984 16984 16984 16984 16984 16984 16984 16984 16537 16537 16537 16113 16113 15710 15710 15327 15327 15327 15327 15327 16113 16537 16113 16113 16113 16113 16113 16113 16113 16537 16537 16984 16984 16984 16984 16984 16984 16984 16537 16537 16113 16113 16113 15710 14962 13092 13092 13092 13092 13092 13092 13092 13092 13092 13092 13092 13092 13092 13092 13092 12825 12825 12825 12825 12825 13092 13092 13370 13661 13661 13661 13661 13661 13661 13661 13661 13661 13661 13661 13661 13661 13661 13661 13661 13661 13661 13661 13661 13661 13965 13965 13965 13965 13965 13965 13965 13965 13965 13965 13965 14282 14282 14614 14614 14614 14614 14614 14614 14614 14614 14614 0 0 0 0 0 0 0 13661 13661 13661 13661 13661 0 0 0 0 0 0 0 0 0 0 0 0 0 0 0 0 0 0 0 0 0 0 0 0 0 0 0 0 0 0 0 10473 10473 10473 10473 10473 10473 10651 10651 10835 10835 10835 10835 10835 10835 10835 10651 10651 10473 10473 10302 10302 10473 10473 10473 10473 10473 10473 10473 10473 10473 10473 10473 10473 10473 10302 10302 10302 10302 10302 10302 10302 10302 10302 10302 10302 10302 10302 10302 10302 10302 10302 10302 10135 10135 10135 10135 10135 9975 9975 9819 9521 9379 9241 9241 9241 9241 9241 9241 9241 9241
    0 0 0 0 0 0 0 0 0 0 0 0 0 0 0 0 0 0 0 0 0 0 0 0 0 0 0 0 0 0 0 0 0 65535 65535 65535 65535 65535 65535 65535 65535 65535 65535 65535 65535 65535 65535 65535 65535 65535 65535 65535 65535 65535 65535 65535 65535 65535 65535 65535 65535 65535 65535 65535 65535 65535 65535 65535 65535 65535 65535 65535 65535 65535 65535 65535 65535 65535 65535 65535 65535 65535 65535 65535 65535 62843 57130 57130 57130 57130 52369 48340 48340 52369 52369 52369 52369 48340 44887 41895 36966 34912 33075 33075 33075 33075 33075 33075 33075 33075 33075 33075 33075 33075 33075 33075 33075 33075 33075 33075 33075 33075 33075 33075 33075 33075 33075 33075 33075 31421 31421 31421 31421 31421 31421 31421 31421 31421 29925 29925 28565 28565 28565 27323 27323 27323 27323 27323 27323 27323 27323 28565 28565 28565 28565 28565 28565 28565 28565 27323 27323 27323 26184 26184 25137 25137 25137 25137 25137 24170 24170 24170 25137 24170 24170 24170 24170 24170 24170 24170 24170 24170 24170 24170 24170 25137 25137 25137 25137 25137 25137 26184 26184 26184 25137 25137 25137 25137 24170 24170 24170 23275 23275 22443 22443 22443 21670 21670 21670 21670 21670 21670 21670 22443 22443 22443 22443 22443 22443 22443 21670 20947 20271 19638 19638 19043 19043 19043 18483 18483 18483 17955 17955 17955 17955 17955 17955 17955 17955 17955 17955 17955 17955 17955 18483 18483 18483 18483 18483 18483 18483 18483 18483 18483 17955 17955 17955 17955 17955 17955 17955 17955 17955 17955 17955 17955 18483 18483 18483 18483 18483 17955 17955 17955 17955 17456 17456 17456 17456 17456 17456 17456 17456 16984 16984 16984 16984 16984 16984 16984 16984 16984 16984 16984 16537 16537 16537 16113 16113 16113 15710 15710 15710 15327 15327 15327 15327 15327 16113 16113 16113 15710 15710 15710 15710 15710 15710 16113 16113 16984 16984 16984 16984 16537 16537 16537 16113 16113 15710 15710 15710 15327 15327 13661 13092 13092 13092 13092 13092 13092 13092 13092 13092 13092 13092 13092 13092 13092 12825 12825 12825 12825 12825 13092 13092 13370 13370 13661 13661 13661 13661 13661 13661 13661 13661 13661 13661 13661 13661 13661 13661 13661 13661 13661 13661 13661 13661 13965 13965 13965 13965 13965 13965 13965 13965 13965 13965 13965 13965 14282 14614 14614 14614 14614 14614 14614 14614 14614 0 0 0 0 0 0 0 13661 13661 13661 13661 13661 13661 13370 0 0 0 0 0 0 0 0 0 0 0 0 0 0 0 0 0 0 0 0 0 0 0 0 0 0 0 0 0 0 10473 10473 10473 10473 10473 10651 10651 10835 10835 10835 10835 10835 11025 11025 10835 10651 10651 10473 10473 10473 10302 10473 10473 10473 10473 10473 10473 10473 10302 10302 10302 10302 10473 10473 10302 10302 10302 10302 10302 10302 10302 10302 10302 10302 10302 10302 10302 10302 10302 10302 10302 10302 10135 10135 9975 9975 9975 9975 9819 9668 9521 9379 9241 9241 9241 9107 9107 9241 9241 9241
    0 0 0 0 0 0 0 0 0 0 0 0 0 0 0 0 0 0 0 0 0 0 0 0 0 0 0 0 0 0 0 0 0 65535 65535 65535 65535 65535 65535 65535 65535 65535 65535 65535 65535 65535 65535 65535 65535 65535 65535 65535 65535 65535 65535 65535 65535 65535 65535 65535 65535 65535 65535 65535 65535 65535 65535 65535 65535 65535 65535 65535 65535 65535 65535 65535 65535 65535 65535 65535 65535 65535 65535 65535 65535 62843 57130 57130 57130 52369 52369 48340 48340 48340 48340 44887 44887 41895 41895 39276 34912 34912 33075 33075 33075 33075 33075 33075 33075 33075 33075 33075 33075 33075 33075 33075 33075 33075 33075 33075 33075 33075 33075 33075 33075 33075 33075 33075 33075 31421 33075 33075 33075 33075 33075 31421 31421 31421 31421 29925 29925 28565 28565 28565 27323 27323 27323 27323 27323 28565 28565 28565 28565 28565 28565 28565 28565 28565 28565 28565 28565 28565 27323 26184 25137 25137 25137 25137 24170 24170 24170 24170 25137 24170 24170 24170 24170 24170 23275 24170 24170 24170 24170 24170 24170 24170 24170 25137 25137 25137 25137 25137 25137 25137 25137 25137 24170 24170 24170 24170 23275 23275 22443 22443 22443 21670 21670 21670 21670 21670 21670 21670 21670 21670 22443 22443 22443 22443 22443 22443 22443 20271 19638 19043 19043 19043 19043 18483 18483 18483 17955 17955 17955 17955 17955 17955 17955 17955 17955 17955 17955 17955 18483 18483 18483 19043 19043 19043 19043 19043 18483 18483 18483 18483 17955 17955 17955 17955 17955 17955 17955 17955 17955 17955 17955 17955 18483 18483 18483 18483 18483 17955 17955 17955 17955 17456 17456 17456 17456 17456 17456 17456 16984 16984 16984 16984 16984 16984 16984 16984 16984 16984 16537 16537 16537 16113 16113 16113 15710 15710 15710 15710 15710 15327 15327 15327 15327 15327 16113 15710 15710 15710 15710 15710 15710 15710 15710 15710 16113 16537 16537 16113 16113 16113 15710 15710 15710 15710 15327 15327 15327 15327 15327 14282 13092 13092 13092 13092 13092 13092 13092 13092 13092 13092 13092 13092 13092 13092 12825 12825 12825 12825 12825 13092 13092 13370 13370 13661 13661 13661 13661 13661 13661 13661 13661 13661 13661 13661 13661 13661 13661 13661 13661 13370 13661 13661 13661 13661 13965 13965 13965 13965 13965 13965 13965 13965 13965 13965 13965 13965 14614 14614 14614 14614 14614 14614 14614 0 0 0 0 0 0 0 0 13661 13661 13661 13661 13661 13661 13370 13370 13965 13965 13965 13965 13965 0 0 0 0 0 0 0 0 0 0 0 0 0 0 0 0 0 0 0 0 0 0 0 0 10473 10473 10473 10473 10651 10835 10835 10835 10835 10835 10835 11025 11025 11025 10835 10651 10651 10651 10473 10473 10473 10473 10473 10651 10473 10473 10473 10473 10302 10302 10302 10302 10302 10302 10302 10135 10135 10302 10302 10302 10302 10302 10473 10302 10302 10302 10302 10302 10302 10302 10302 10302 10135 9975 9975 9975 9819 9819 9668 9668 9521 9379 9241 9241 9241 9107 9107 9241 9241 9241
    0 0 0 0 0 0 0 0 0 0 0 0 0 0 0 0 0 0 0 0 0 0 0 0 0 0 0 0 0 0 0 0 0 65535 65535 65535 65535 65535 65535 65535 65535 65535 65535 65535 65535 65535 65535 65535 65535 65535 65535 65535 65535 65535 65535 65535 65535 65535 65535 65535 65535 65535 65535 65535 65535 65535 65535 65535 65535 65535 65535 65535 65535 65535 65535 65535 65535 65535 65535 65535 65535 65535 65535 65535 65535 57130 52369 52369 52369 52369 48340 48340 44887 44887 44887 44887 41895 39276 39276 36966 34912 34912 33075 33075 33075 33075 33075 33075 33075 33075 33075 33075 33075 33075 33075 33075 33075 33075 33075 33075 33075 33075 33075 33075 33075 33075 33075 33075 33075 31421 33075 33075 33075 33075 33075 33075 33075 31421 31421 31421 29925 29925 28565 28565 28565 28565 28565 28565 28565 28565 28565 28565 28565 28565 28565 29925 29925 29925 29925 29925 29925 28565 27323 26184 26184 25137 25137 25137 25137 25137 25137 25137 25137 25137 24170 24170 24170 24170 23275 23275 24170 24170 24170 24170 24170 24170 24170 24170 24170 25137 25137 25137 25137 25137 24170 24170 24170 24170 24170 24170 23275 23275 22443 22443 21670 21670 21670 21670 21670 21670 21670 21670 21670 21670 21670 22443 22443 22443 22443 22443 22443 20271 19043 19043 19043 18483 18483 18483 18483 18483 17955 17955 17955 17955 17955 17955 17955 17955 17955 18483 18483 18483 18483 18483 19043 19043 19043 19043 19043 19043 19043 18483 18483 18483 17955 17955 17955 17955 17955 17955 17955 17955 17955 17955 17955 17955 18483 18483 18483 18483 18483 18483 18483 17955 17955 17955 17955 17456 17456 17456 17456 16984 16984 16984 16984 16984 16984 16984 16984 16984 16984 16537 16537 16537 16113 16113 15710 15710 15710 15710 15710 15710 15327 15327 15327 15327 15327 15327 16113 15710 15710 15710 15710 15710 15710 15710 15710 15710 15710 15710 15710 15710 15710 15710 15710 15710 15710 15710 15327 15327 15327 15327 15327 14962 13092 13092 13092 13370 13370 13092 13092 13092 13092 13092 13092 13092 13092 13092 12825 12825 12825 12825 12825 13092 13092 13370 13370 13661 13661 13661 13661 13661 13661 13661 13661 13661 13661 13661 13661 13661 13661 13661 13661 13370 13661 13661 13661 13661 13965 13965 13965 13965 13965 13965 13965 13965 13965 13965 13965 13661 14282 14282 14282 14282 14282 14282 14282 0 0 0 0 0 0 0 0 13661 13661 13661 13661 13661 13661 13661 13965 14282 14282 14282 14282 13965 13965 0 0 0 0 0 0 0 0 0 0 0 0 0 0 0 0 0 0 0 0 0 0 0 0 0 0 0 11221 11025 11025 11025 11025 11025 10835 11025 11025 11025 10835 10835 10651 10651 10473 10473 10473 10473 10473 10651 10473 10473 10473 10473 10302 10302 10302 10302 10302 10302 10135 10135 10135 10135 10302 10302 10302 10302 10473 10473 10473 10473 10473 10473 10302 10302 10302 10135 10135 9975 9819 9819 9668 9668 9668 9521 9379 9379 9241 9241 9241 9107 9107 9241 9241 9241
    0 0 0 0 0 0 0 0 0 0 0 0 0 0 0 0 0 0 0 0 0 0 0 0 0 0 0 0 0 0 0 0 0 65535 65535 65535 65535 65535 65535 65535 65535 65535 65535 65535 65535 65535 65535 65535 65535 65535 65535 65535 65535 65535 65535 65535 65535 65535 65535 65535 65535 65535 65535 65535 65535 65535 65535 65535 65535 65535 65535 65535 65535 65535 65535 65535 65535 65535 65535 65535 65535 65535 65535 65535 65535 52369 52369 48340 48340 48340 48340 44887 44887 44887 41895 41895 41895 39276 36966 36966 34912 33075 33075 33075 33075 33075 33075 33075 33075 33075 33075 33075 33075 34912 34912 34912 34912 34912 34912 33075 33075 33075 33075 33075 33075 33075 33075 33075 33075 31421 33075 33075 33075 33075 33075 33075 33075 31421 31421 31421 29925 29925 29925 28565 28565 28565 28565 28565 28565 28565 28565 28565 28565 29925 29925 29925 29925 29925 29925 29925 29925 29925 28565 26184 26184 25137 25137 25137 25137 25137 25137 25137 25137 25137 24170 24170 24170 24170 23275 23275 23275 23275 24170 24170 24170 24170 24170 24170 24170 24170 24170 24170 24170 24170 24170 24170 24170 24170 24170 23275 23275 23275 22443 22443 21670 21670 21670 21670 21670 20947 21670 21670 21670 21670 21670 22443 22443 22443 22443 22443 21670 20271 18483 18483 18483 18483 18483 18483 17955 17955 17955 17955 17955 17955 17955 17955 17955 17955 17955 18483 18483 18483 19043 19043 19043 19043 19043 19043 19043 19043 19043 18483 18483 18483 18483 17955 17955 17955 17955 17955 17955 17955 17955 17955 17955 17955 18483 18483 18483 18483 18483 18483 18483 17955 17955 17955 17955 17456 17456 17456 17456 16984 16984 16984 16984 16984 16984 16984 16984 16984 16984 16537 16537 16537 16113 16113 15710 15710 15710 15710 15710 15710 15710 15710 15327 15327 15327 16113 16984 16113 16113 15710 15710 15710 15710 15710 15710 15710 15710 15710 15710 15710 15710 15710 15710 15710 15710 15327 15327 15327 15327 15327 15327 15327 13092 13092 13092 13370 13370 13370 13370 13370 13370 13092 13092 13092 13092 13092 12825 12825 12825 12825 12825 12825 13092 13092 13370 13370 13661 13661 13661 13661 13661 13661 13661 13661 13661 13661 13661 13661 13661 13661 13370 13370 13661 13661 13661 13661 13661 13661 13965 13965 13965 13965 13965 13965 13965 13965 13965 13661 13965 13965 13965 13965 13965 13965 13965 0 0 0 0 0 0 0 0 13661 13661 13661 13661 13661 13661 13661 13965 14282 14282 14282 14282 13965 13965 0 0 0 0 0 0 0 0 0 0 0 0 0 0 0 0 0 0 0 0 0 0 0 0 0 0 0 11221 11025 11025 11025 11025 11025 10835 11025 11025 10835 10835 10835 10651 10651 10473 10473 10473 10473 10473 10473 10473 10473 10473 10473 10302 10302 10302 10302 10302 10302 10135 9975 10135 10135 10135 10302 10302 10302 10473 10473 10473 10473 10473 10473 10302 10302 10302 10135 9975 9819 9819 9668 9521 9521 9521 9379 9379 9241 9241 9241 9241 9107 9107 9241 9241 9241
    0 0 0 0 0 0 0 0 0 0 0 0 0 0 0 0 0 0 0 0 0 0 0 0 0 0 0 0 0 0 0 0 0 65535 65535 65535 65535 65535 65535 65535 65535 65535 65535 65535 65535 65535 65535 65535 65535 65535 65535 65535 65535 65535 65535 65535 65535 65535 65535 65535 65535 65535 65535 65535 65535 65535 65535 65535 65535 65535 65535 65535 65535 65535 65535 65535 65535 65535 65535 65535 65535 65535 65535 65535 48340 48340 48340 48340 48340 44887 44887 44887 44887 41895 41895 39276 39276 36966 34912 34912 33075 33075 33075 33075 31421 33075 33075 33075 33075 33075 33075 34912 34912 34912 34912 34912 34912 34912 34912 34912 34912 34912 34912 34912 33075 33075 33075 33075 31421 31421 31421 31421 31421 31421 31421 31421 31421 31421 31421 31421 31421 29925 29925 29925 28565 28565 28565 28565 28565 28565 28565 28565 29925 29925 29925 29925 29925 29925 29925 29925 29925 29925 28565 27323 26184 26184 25137 25137 25137 25137 25137 25137 25137 25137 24170 24170 24170 24170 23275 23275 23275 23275 23275 23275 23275 23275 24170 24170 24170 24170 24170 24170 24170 24170 24170 24170 24170 24170 24170 23275 23275 22443 22443 21670 21670 21670 21670 20947 20947 20947 20947 21670 21670 21670 21670 21670 21670 21670 21670 21670 21670 19638 18483 18483 18483 18483 17955 17955 17955 17955 17955 17955 17955 17955 17955 17955 17955 17955 18483 18483 18483 19043 19043 19638 19638 19638 19638 19638 19043 19043 19043 18483 18483 18483 18483 18483 18483 18483 17955 17955 17955 17955 17955 17955 17955 17955 18483 18483 18483 18483 18483 18483 18483 17955 17955 17955 17955 17456 17456 17456 17456 16984 16984 16984 16984 16984 16984 16984 16984 16984 16984 16537 16537 16537 16113 16113 16113 15710 15710 15710 15710 15710 15710 15710 15327 15327 15327 17456 16984 16537 16113 16113 15710 15710 15710 15710 15710 15710 15710 15710 15710 15710 15710 15710 15710 15710 15710 15327 15327 15327 15327 15327 15327 15327 0 13092 13370 13370 13370 13370 13370 13370 13370 13370 13092 13092 13092 13092 12825 12825 12825 12825 12825 12825 13092 13092 13370 13370 13661 13661 13661 13661 13661 13661 13370 13370 13370 13370 13370 13661 13661 13661 13661 13661 13661 13661 13661 13661 13661 13661 13661 13661 13965 13965 13965 13965 13965 13965 13965 13965 13965 13965 13965 13965 13965 13965 13965 0 0 0 0 0 0 0 0 13661 13661 13661 13661 13661 13661 13965 13965 14282 14282 14282 14282 13965 13965 0 0 0 0 0 0 0 0 0 0 0 0 0 0 0 0 0 0 0 0 0 0 0 0 0 0 0 11221 11025 11025 11025 11025 11025 11025 11025 11025 10835 10835 10835 10835 10651 10651 10473 10473 10473 10473 10473 10473 10473 10473 10473 10302 10302 10302 10302 10302 10302 10135 9975 10135 10135 10135 10302 10302 10302 10473 10473 10473 10473 10473 10473 10302 10302 10302 10135 9975 9819 9668 9521 9379 9379 9379 9241 9241 9241 9241 9241 9241 9241 9241 9241 9241 9241
    0 0 0 0 0 0 0 0 0 0 0 0 0 0 0 0 0 0 0 0 0 0 0 0 0 0 0 0 0 0 0 0 0 65535 65535 65535 65535 65535 65535 65535 65535 65535 65535 65535 65535 65535 65535 65535 65535 65535 65535 65535 65535 0 0 0 0 0 0 0 65535 65535 65535 65535 65535 65535 65535 65535 65535 65535 65535 65535 65535 65535 65535 65535 65535 65535 65535 65535 65535 65535 65535 0 48340 48340 48340 48340 44887 44887 44887 41895 41895 41895 39276 36966 36966 34912 33075 33075 33075 31421 31421 31421 31421 31421 33075 33075 33075 33075 34912 34912 34912 34912 34912 34912 34912 34912 34912 34912 34912 34912 34912 34912 33075 33075 33075 33075 31421 31421 31421 31421 31421 31421 31421 31421 31421 31421 31421 31421 31421 29925 29925 29925 29925 28565 28565 28565 28565 28565 28565 28565 29925 29925 29925 29925 29925 29925 29925 29925 29925 28565 28565 27323 26184 26184 25137 25137 25137 25137 25137 25137 24170 24170 24170 24170 24170 24170 23275 23275 23275 23275 23275 23275 23275 23275 23275 24170 24170 24170 24170 24170 24170 24170 24170 24170 24170 23275 23275 23275 23275 22443 22443 22443 21670 21670 21670 21670 20947 20947 20947 21670 21670 21670 21670 21670 21670 21670 21670 20947 20271 19043 17955 17955 17955 17955 17955 17955 17955 17955 17955 17955 17955 17955 17955 17955 17955 18483 18483 18483 19043 19043 19638 19638 19638 19638 19638 19638 19638 19043 19043 19043 18483 18483 18483 18483 18483 18483 18483 18483 17955 17955 17955 17955 17955 17955 18483 18483 19043 18483 18483 18483 18483 17955 17955 17955 17955 17456 17456 17456 17456 16984 16984 16984 16984 16984 16984 16984 16984 16984 16984 16537 16537 16537 16113 16113 16113 16113 15710 15710 15710 15710 15710 15710 0 0 0 17456 16984 16537 16537 16113 16113 15710 15710 15710 15710 15710 15710 15710 15710 15710 15710 15710 15710 15710 15710 15327 15327 15327 15327 15327 15327 15327 14962 13965 13661 13661 13661 13661 13370 13370 13370 13370 13092 13092 13092 13092 12825 12825 12825 12825 12825 12825 12825 13092 13092 13370 13661 13661 13661 13661 13661 13661 13370 13370 13370 13370 13661 13661 13661 13661 13661 13661 13661 13661 13661 13661 13661 13661 13661 13661 13965 13965 13965 13965 13965 13965 13965 13965 13965 13965 13965 13965 13965 13965 13965 0 0 0 0 0 0 0 0 13661 13661 13661 13661 13661 13965 13965 13965 14282 14282 14282 14282 13965 13965 0 0 0 0 0 0 0 0 0 0 0 0 0 0 0 0 0 0 0 0 0 0 0 0 0 0 0 11221 11025 11025 11025 11025 11025 11025 11025 11025 10835 10835 10835 10835 10651 10651 10651 10473 10473 10302 10473 10473 10473 10473 10473 10302 10302 10302 10302 10302 10302 10135 9975 10135 10135 10135 10302 10302 10302 10473 10473 10473 10473 10473 10473 10302 10302 10135 9975 9819 9668 9521 9379 9379 9241 9241 9107 9107 9107 9107 9107 9241 9241 9241 9241 9241 9241
    0 0 0 0 0 0 0 0 0 0 0 0 0 0 0 0 0 0 0 0 0 0 0 0 0 0 0 0 0 0 0 0 0 65535 65535 65535 65535 65535 65535 65535 65535 65535 65535 65535 65535 65535 65535 65535 65535 65535 65535 65535 65535 0 0 0 0 0 0 0 65535 65535 65535 65535 65535 65535 65535 65535 65535 65535 65535 65535 65535 65535 65535 65535 65535 65535 65535 65535 65535 65535 0 0 48340 48340 48340 44887 44887 44887 41895 41895 41895 39276 36966 34912 34912 33075 33075 31421 31421 31421 31421 31421 31421 31421 33075 33075 33075 33075 34912 34912 34912 34912 34912 34912 34912 34912 34912 34912 34912 34912 34912 34912 33075 33075 33075 31421 31421 31421 31421 31421 31421 31421 31421 31421 31421 31421 31421 31421 31421 29925 29925 29925 29925 28565 28565 28565 28565 28565 28565 28565 28565 29925 29925 29925 29925 29925 29925 29925 28565 28565 27323 27323 26184 26184 25137 25137 25137 25137 24170 24170 24170 24170 24170 24170 24170 24170 23275 23275 23275 23275 23275 23275 23275 23275 23275 23275 23275 24170 24170 24170 24170 24170 24170 24170 23275 23275 23275 23275 23275 22443 22443 22443 21670 21670 21670 21670 21670 20947 20947 21670 21670 21670 21670 21670 21670 20947 20947 20271 19638 18483 17955 17456 17456 17456 17456 17456 17955 17955 17955 17955 17955 17955 17955 17955 18483 18483 18483 19043 19043 19638 19638 20271 20271 20271 19638 19638 19638 19638 19043 19043 19043 19043 19043 19043 19043 18483 18483 18483 17955 17955 17955 17955 17955 17955 18483 18483 18483 18483 18483 18483 17955 17955 17955 17955 17955 17456 17456 17456 17456 16984 16984 16984 16984 16984 16984 16984 16984 16984 16984 16537 16537 16537 16537 16537 16113 16113 16113 15710 15710 15710 15710 16113 0 0 16984 17456 16984 16984 16537 16537 16113 16113 15710 15710 15710 15710 15710 15710 15327 15710 15710 15710 15710 15327 15327 15327 15327 15327 15327 15327 15327 15327 14962 14282 13965 13965 13661 13661 13661 13661 13370 13370 13092 13092 13092 13092 12825 12825 12825 12825 12825 12825 12825 13092 13092 13370 13661 13661 13661 13661 13661 13661 13370 13370 13370 13661 13661 13661 13661 13661 13661 13661 13661 13661 13661 13661 13661 13661 13661 13661 13661 13965 13965 13965 13965 13965 13965 13965 13965 13965 13965 13965 13965 13661 13661 0 0 0 0 0 0 0 0 13661 13661 13661 13661 13965 13965 13965 13965 14282 14282 14282 14282 13965 13965 0 0 0 0 0 0 0 0 0 0 0 0 0 0 0 0 0 0 0 0 0 0 0 0 0 0 11025 11025 11025 11025 11025 11025 11025 11025 11025 11025 11025 10835 10835 10835 10835 10651 10651 10651 10473 10302 10302 10302 10302 10302 10302 10302 10302 10302 10302 10302 10302 10135 9975 10135 10135 10135 10302 10302 10473 10473 10473 10473 10473 10473 10302 10302 10135 9975 9819 9668 9521 9379 9379 9241 9241 9107 9107 9107 9107 9107 9107 9241 9241 9241 9241 9241 9241
    0 0 0 0 0 0 0 0 0 0 0 0 0 0 0 0 0 0 0 0 0 0 0 0 0 0 0 0 0 0 0 0 0 65535 65535 65535 65535 65535 65535 65535 65535 65535 65535 65535 65535 65535 65535 65535 65535 65535 65535 65535 65535 0 0 0 0 0 0 0 0 65535 65535 65535 65535 65535 65535 65535 65535 65535 65535 65535 65535 65535 65535 65535 65535 65535 65535 65535 65535 0 0 0 48340 48340 48340 44887 44887 41895 41895 41895 41895 36966 34912 33075 33075 31421 31421 31421 31421 31421 31421 31421 31421 31421 33075 33075 33075 33075 34912 34912 34912 34912 34912 34912 34912 34912 34912 34912 34912 34912 34912 34912 33075 33075 33075 31421 31421 31421 31421 31421 31421 31421 29925 29925 29925 29925 29925 29925 29925 29925 29925 29925 29925 28565 28565 28565 28565 28565 28565 28565 28565 28565 28565 28565 28565 28565 28565 28565 28565 28565 27323 27323 26184 26184 25137 25137 25137 25137 24170 24170 24170 24170 24170 24170 24170 23275 23275 23275 23275 23275 23275 23275 23275 23275 23275 23275 23275 23275 23275 23275 23275 24170 24170 24170 24170 24170 23275 23275 23275 22443 22443 22443 21670 21670 21670 21670 21670 20947 20947 21670 21670 21670 21670 21670 20947 20947 20271 19638 18483 17955 17456 17456 17456 17456 17456 17456 17456 17456 17955 17955 17955 17955 17955 18483 18483 18483 19043 19043 19638 20271 20271 20271 20271 20271 20271 20271 20271 19638 19638 19043 19043 19043 19043 19043 19043 19043 18483 18483 17955 17955 17955 17955 17955 17955 18483 18483 18483 18483 18483 17955 17955 17955 17955 17955 17456 17456 17456 17456 17456 16984 16984 16984 16984 16984 16984 16984 16984 16984 16984 16537 16537 16537 16537 16537 16537 16537 16113 16113 16113 16113 15710 16113 15710 15710 16984 17456 16984 16984 16984 16537 16113 15710 15327 15327 15327 15327 15327 15327 15327 15327 15327 15327 15327 15327 15327 15327 14962 14962 14962 15327 15327 15327 14962 14282 13965 13965 13965 13661 13661 13661 13370 13370 13092 13092 13092 13092 12825 12825 12825 12825 12825 12825 12825 12825 13092 13370 13370 13661 13661 13661 13661 13661 13370 13370 13661 13661 13661 13661 13661 13661 13661 13661 13661 13661 13661 13661 13661 13661 13661 13661 13661 13965 13965 13965 13965 13965 13965 13965 13965 13965 13965 13965 13661 13661 13661 13661 0 0 0 0 0 0 0 13661 13661 13661 13661 13965 13965 13965 13965 14282 14282 13965 13965 13965 13965 0 0 0 0 0 0 0 0 0 0 0 0 0 0 0 0 0 0 0 0 0 0 0 0 0 0 11025 11025 11025 11025 11025 11025 11025 11025 11025 11025 11025 11025 10835 10835 10835 10835 10651 10651 10473 10473 10302 10302 10302 10302 10302 10302 10302 10302 10302 10302 10302 10135 10135 10135 10135 10302 10302 10473 10473 10473 10302 10302 10302 10302 10302 10135 9975 9819 9668 9521 9379 9379 9241 9241 9107 9107 8977 8977 9107 9107 9241 9241 9241 9379 9379 9379 9379
    0 0 0 0 0 0 0 0 0 0 0 0 0 0 0 0 0 0 0 0 0 0 0 0 0 0 0 0 0 0 0 0 0 65535 65535 65535 65535 65535 65535 65535 65535 65535 65535 65535 65535 65535 65535 65535 65535 65535 65535 65535 65535 0 0 0 0 0 0 0 0 0 65535 65535 65535 65535 65535 65535 65535 65535 65535 65535 65535 65535 65535 65535 65535 65535 65535 65535 0 0 0 0 48340 48340 48340 44887 44887 41895 41895 41895 39276 34912 31421 31421 31421 31421 29925 29925 29925 29925 31421 31421 31421 31421 33075 33075 33075 33075 34912 34912 34912 34912 34912 34912 34912 34912 34912 34912 34912 34912 34912 34912 33075 33075 31421 31421 29925 29925 29925 29925 29925 29925 29925 29925 29925 29925 29925 29925 29925 29925 29925 29925 29925 29925 28565 28565 28565 28565 28565 28565 28565 28565 28565 28565 28565 28565 28565 28565 28565 27323 27323 27323 26184 26184 25137 25137 25137 24170 24170 24170 24170 24170 24170 23275 23275 23275 23275 23275 23275 23275 23275 23275 23275 22443 22443 22443 23275 23275 23275 23275 23275 23275 24170 24170 24170 24170 24170 23275 23275 22443 22443 22443 21670 21670 21670 21670 21670 20947 20947 20947 20947 20947 20947 20271 20271 19638 19043 18483 17955 17456 17456 16984 16984 16984 17456 17456 17456 17955 17955 17955 17955 17955 18483 18483 18483 19043 19043 19638 20271 20271 20271 20271 20271 20271 20271 20271 20271 20271 19638 19638 19043 19043 19043 19043 19043 19043 18483 18483 17955 17955 17955 17955 17955 17955 18483 18483 18483 17955 17955 17955 17955 17955 17955 17955 17456 17456 17456 17456 17456 17456 16984 16984 16984 16984 16984 16984 16984 16537 16537 16537 16537 16537 16537 16537 16537 16537 16537 16113 16113 16113 16113 16113 15710 15710 16984 16984 16984 16984 16984 16537 15710 14962 14282 14614 14962 14962 15327 15327 15327 15327 15327 15327 15327 15327 15327 14962 14962 14962 14962 14962 14962 14962 14962 14614 13965 13965 13965 13661 13661 13661 13661 13370 13370 13092 13092 13092 12825 12825 12825 12825 12825 12825 12825 12825 13092 13370 13370 13661 13661 13661 13661 13661 13370 13661 13661 13661 13661 13661 13661 13661 13661 13661 13661 13661 13661 13661 13661 13661 13661 13661 13661 13965 13965 13965 13965 13965 13965 13965 13965 13965 13965 13965 13965 13965 13661 13661 0 0 0 0 0 0 0 13661 13661 13661 13661 13965 13965 13965 13965 14282 14282 13965 13965 13965 0 0 0 0 0 0 0 0 0 0 0 0 0 0 0 0 0 0 0 0 0 0 0 0 0 0 0 11025 11025 11025 11025 11025 11025 11025 11025 11025 11025 11025 11025 10835 10835 10835 10835 10651 10651 10473 10473 10473 10302 10302 10302 10302 10302 10302 10302 10302 10302 10302 10135 10135 10135 10135 10302 10302 10473 10473 10302 10302 10302 10302 10135 10135 9975 9819 9668 9521 9379 9379 9241 9241 9107 9107 8977 8977 9107 9107 9107 9241 9379 9379 9379 9379 9379 9379
    0 0 0 0 0 0 0 0 0 0 0 0 0 0 0 0 0 0 0 0 0 0 0 0 0 0 0 0 0 0 0 0 0 65535 65535 65535 65535 65535 65535 65535 65535 65535 65535 65535 65535 65535 65535 65535 65535 65535 65535 65535 65535 65535 0 0 0 0 0 0 0 65535 65535 65535 65535 65535 65535 65535 65535 65535 65535 65535 65535 65535 65535 65535 65535 65535 65535 65535 0 0 0 0 0 0 0 0 0 0 0 0 0 31421 31421 31421 31421 31421 29925 29925 29925 29925 31421 31421 31421 31421 33075 33075 33075 33075 34912 34912 34912 34912 34912 34912 34912 34912 34912 34912 34912 34912 34912 34912 33075 33075 31421 31421 29925 29925 29925 29925 29925 29925 29925 29925 29925 29925 29925 29925 29925 29925 29925 29925 29925 29925 28565 28565 28565 28565 28565 28565 28565 28565 28565 28565 28565 28565 28565 27323 27323 27323 27323 26184 26184 26184 25137 25137 24170 24170 24170 24170 24170 23275 23275 23275 23275 23275 23275 23275 23275 23275 23275 23275 22443 22443 22443 22443 22443 22443 22443 23275 23275 23275 24170 24170 24170 24170 23275 23275 23275 22443 22443 22443 21670 21670 21670 21670 20947 20947 20947 20947 20947 20271 19638 19638 19043 18483 17955 17955 17456 16984 16984 16984 16984 16984 16984 17456 17456 17955 17955 17955 17955 17955 18483 18483 18483 19043 19638 19638 20271 20271 20271 20271 20271 20271 20271 20271 20271 20271 20271 19638 19043 19043 19043 19043 19043 18483 18483 17955 17955 17955 17955 17955 17955 17955 17955 17955 17955 17955 17955 17955 17955 17955 17955 17456 17456 17456 17456 17456 17456 17456 16984 16984 16984 16984 16984 16537 16537 16537 16537 16537 16537 16537 16537 16537 16537 16537 16537 16113 16113 16113 15710 15710 15710 15710 16984 16984 16984 16984 16537 16113 15327 14614 14282 14614 14962 14962 14962 15327 15327 15327 15327 15327 15327 14962 14962 14962 14962 14962 14962 14962 14962 14962 14962 14614 14282 13965 13965 13965 13661 13661 13661 13661 13370 13370 13092 13092 13092 12825 12825 12825 12825 12825 12825 12825 13092 13092 13370 13661 13661 13661 13661 13661 13661 13661 13661 13661 13661 13661 13661 13661 13661 13661 13661 13661 13661 13661 13661 13661 13661 13661 13661 13965 13965 13965 13965 13965 13965 13965 13965 13965 13965 13965 13965 13965 13661 13661 0 0 0 0 0 0 0 13661 13661 13661 13661 13965 13965 13965 13965 13965 13965 13965 13965 0 0 0 0 0 0 0 0 0 0 0 0 0 0 0 0 0 0 0 0 0 0 0 0 0 0 0 0 11025 11025 11025 11025 11025 11025 11025 11025 11025 11025 11025 11025 11025 10835 10835 10835 10651 10651 10651 10473 10473 0 10302 10302 10302 10302 10302 10302 10302 10302 10302 10302 10135 10135 10302 10302 10473 10473 10473 10302 10302 10135 10135 9975 9819 9668 9521 9521 9379 9379 9241 9241 9107 9107 9107 9107 9107 9107 9107 9241 9379 9379 9379 9521 9521 9521 9521
    0 0 0 0 0 0 0 0 0 0 0 0 0 0 0 0 0 0 0 0 0 0 0 0 0 0 0 0 0 0 0 0 0 65535 65535 65535 65535 65535 65535 65535 65535 65535 65535 65535 65535 65535 65535 65535 65535 65535 65535 65535 65535 65535 65535 65535 65535 65535 65535 65535 65535 65535 65535 65535 65535 65535 65535 65535 65535 65535 65535 65535 65535 65535 65535 65535 65535 65535 65535 65535 65535 0 0 0 0 0 0 0 0 34912 34912 34912 34912 33075 31421 31421 31421 31421 31421 29925 29925 29925 31421 31421 31421 31421 33075 33075 33075 33075 34912 34912 34912 34912 34912 34912 34912 34912 34912 34912 34912 34912 34912 33075 33075 31421 31421 29925 29925 29925 29925 29925 29925 29925 29925 29925 29925 29925 29925 29925 29925 29925 29925 29925 29925 29925 28565 28565 28565 28565 28565 28565 28565 28565 28565 28565 28565 28565 27323 27323 27323 27323 27323 26184 26184 26184 25137 25137 24170 24170 24170 24170 23275 23275 23275 23275 23275 23275 23275 23275 23275 23275 23275 22443 22443 22443 22443 22443 22443 22443 22443 22443 23275 23275 23275 24170 24170 24170 23275 23275 23275 22443 22443 22443 21670 21670 21670 20947 20947 20947 20947 20271 19638 19638 19043 18483 17955 17456 16984 16984 16984 16984 16984 16984 16984 16984 17456 17456 17955 17955 17955 17955 17955 18483 18483 18483 18483 19043 19638 19638 20271 20271 20271 20271 20271 20271 20271 20271 20271 20271 19638 19043 19043 18483 18483 18483 18483 18483 18483 17955 17955 17955 17955 17955 17955 17955 17955 17955 17955 17456 17456 17456 17456 17456 17456 17456 17456 17456 17456 17456 17456 16984 16984 16984 16984 16984 16984 16984 16984 16984 16984 16537 16537 16537 16537 16537 16537 16537 16537 16113 16113 15710 15710 15710 15710 15710 16537 16984 16984 16984 16537 15327 14962 14614 14614 14614 14614 14962 14962 14962 14962 14962 14962 14962 14962 14962 14962 14962 14962 14962 14962 15327 15327 15327 14962 14614 14282 13965 13965 13661 13661 13661 13661 13661 13661 13370 13370 13092 13092 13092 12825 12825 12825 12825 12825 12825 13092 13092 13370 13661 13661 13661 13661 13661 13661 13661 13661 13661 13661 13661 13661 13661 13661 13661 13661 13661 13661 13661 13965 13965 13965 13965 13965 13965 13965 13965 13965 13965 13965 13965 13965 13965 13965 13965 13965 13965 13661 13661 0 0 0 0 0 0 13661 13661 13661 13661 13661 13965 13965 13965 13965 13965 13965 13965 13965 0 0 0 0 0 0 0 0 0 0 0 0 0 0 0 0 0 0 0 0 0 0 0 0 0 0 0 0 11025 11025 11025 11025 11025 11025 11025 11025 11025 11025 11025 11025 11025 10835 10835 10651 10651 10651 10651 10473 10473 10473 10473 10473 10473 10473 10302 10302 10302 10302 10302 10302 10302 10302 10302 10302 10302 10473 10302 10302 10135 9975 9975 9819 9668 9521 9379 9241 9241 9241 9241 9107 9107 9107 9107 9107 9107 9107 9241 9241 9379 9379 9521 9521 9521 9521 9521
    0 0 0 0 0 0 0 0 0 0 0 0 0 0 0 0 0 0 0 0 0 0 0 0 0 0 0 0 0 0 0 0 65535 65535 65535 65535 65535 65535 65535 65535 65535 65535 65535 65535 65535 65535 65535 65535 65535 65535 65535 65535 65535 65535 65535 65535 65535 65535 65535 65535 65535 65535 65535 65535 65535 65535 65535 65535 65535 65535 65535 65535 65535 65535 65535 65535 65535 65535 65535 65535 65535 0 0 0 0 0 0 0 34912 34912 34912 34912 34912 33075 33075 31421 31421 31421 31421 29925 29925 29925 31421 31421 31421 31421 33075 33075 33075 33075 34912 34912 34912 34912 34912 34912 34912 34912 34912 34912 34912 34912 34912 33075 33075 31421 31421 29925 29925 29925 29925 29925 29925 29925 29925 28565 28565 28565 28565 28565 28565 29925 29925 29925 29925 29925 28565 28565 28565 28565 28565 28565 28565 28565 28565 28565 28565 27323 27323 27323 27323 26184 26184 26184 26184 26184 25137 24170 24170 24170 24170 23275 23275 23275 23275 23275 23275 23275 23275 23275 23275 23275 23275 22443 22443 22443 22443 21670 21670 21670 22443 22443 23275 23275 23275 24170 24170 24170 24170 23275 23275 22443 22443 22443 21670 21670 20947 20947 20947 20271 20271 19638 19043 18483 17955 17456 16984 16984 16984 16984 16984 16984 16984 16984 16984 17456 17456 17955 17955 17955 17955 17955 18483 18483 18483 18483 18483 19043 19043 19638 20271 20271 20271 20271 20271 19638 19638 19638 19638 19638 19638 19043 19043 18483 18483 18483 18483 17955 17955 17955 17955 17955 17955 17955 17955 17955 17955 17955 17456 17456 17456 17456 17456 17456 17456 17456 17456 17456 17456 17456 16984 16984 16984 16984 16984 16984 16984 16984 16984 16984 16984 16537 16537 16537 16537 16537 16537 16537 16537 16113 15710 15710 15710 15710 15710 15710 16113 16984 16984 16984 16113 14962 14614 14614 14614 14614 14614 14962 14962 14962 14962 14962 14962 14962 14962 14962 14962 14962 14962 14962 14962 15327 15327 15327 14962 14614 14282 14282 13965 13661 13661 13661 13661 13661 13661 13661 13370 13370 13092 13092 13092 12825 12825 12825 12825 12825 12825 13092 13370 13370 13661 13661 13661 13661 13661 13661 13661 13661 13661 13965 13965 13965 13661 13661 13661 13661 13661 13661 13965 13965 13965 13965 13965 13965 13965 13965 13965 13965 13965 13965 13965 13965 13965 13965 13965 13965 13965 13965 0 0 0 13661 13661 13661 13661 13661 13661 13661 13661 13965 13965 13965 13965 13965 13965 13965 13965 0 0 0 0 0 0 0 0 0 0 0 0 0 0 0 0 0 0 0 0 0 0 0 0 0 0 0 0 10835 10835 10835 10835 11025 11025 11025 11025 11025 11221 11221 11025 11025 10835 10835 10651 10651 10651 10651 10473 10651 10651 10473 10473 10473 10473 10473 10473 10473 10473 10302 10302 10302 10302 10302 10302 10302 10302 10302 10135 9975 9819 9668 9668 9521 9379 9241 9241 9241 9107 9107 9107 9107 9107 9107 9107 9107 9241 9241 9379 9379 9521 9521 9521 9521 9521 9521</data></DepthMat>
</opencv_storage>
