<?xml version="1.0"?>
<opencv_storage>
<DepthMat type_id="opencv-matrix">
  <rows>46</rows>
  <cols>512</cols>
  <dt>w</dt>
  <data>
    0 0 0 0 0 0 0 0 0 0 0 0 0 0 0 0 0 0 0 0 0 0 0 0 0 0 0 0 0 0 0 0 0 4620 4620 4620 4620 4620 4587 4587 4587 4587 4587 4521 4456 4425 4425 4394 4364 4394 4394 4394 4425 4760 5109 5109 5109 5109 5109 5067 0 4425 4394 4394 4394 4394 4394 4394 4425 4456 4488 4521 4620 4871 5067 0 0 0 0 0 0 0 0 0 0 0 0 0 0 0 0 0 0 0 0 0 0 0 0 0 0 0 0 0 0 0 0 4689 4689 4587 4521 4488 4425 4394 4364 4364 4364 4334 4334 4334 4334 4394 4425 4425 4425 4425 4394 4394 4364 4364 4364 4364 4394 4394 4394 4394 4394 4394 4394 4394 4394 4394 4394 4394 4394 4394 4394 4394 4394 4394 4364 4364 4364 4364 4364 4364 4364 4364 4364 4364 4364 4364 4364 4364 4364 4394 4394 4425 4456 4456 4456 4456 4456 4425 4425 4425 4425 4425 4394 4394 4394 4394 4425 4456 4488 4521 4521 4521 4521 4521 4521 4521 4521 4553 4553 4553 4553 4553 4553 4553 4553 4553 4553 4553 4553 4553 4553 4553 4553 4553 4553 4553 4553 4553 4553 4553 4553 4587 4587 4587 4587 4587 4587 4587 4587 4587 4587 4587 4587 4587 4587 4587 4587 4587 4587 4587 4587 4620 4620 4620 4620 4655 4655 4655 4655 4655 4689 4689 4689 4689 4689 4689 4689 4725 4725 4725 4725 4725 4725 4725 4725 4689 4689 4689 4689 4689 4689 4689 4689 4725 4725 4725 4725 4725 4725 4725 4725 4689 4689 4689 4725 4725 4725 4760 4760 4760 4760 4760 4760 4760 4760 4760 4760 4725 4725 4725 4725 4725 4725 4725 4725 4760 4760 4797 4797 4797 4797 4797 4760 4760 4760 4760 4760 4760 4797 4797 4834 4834 4871 4871 4871 4871 4871 4909 4909 4909 0 0 0 0 5713 5765 5765 5765 5765 5818 5818 5818 5818 5818 5818 5818 5818 5818 5818 5818 5818 5818 5818 5818 5818 5818 5818 5818 5818 5818 5818 5818 5873 5873 5873 5873 5873 5873 0 0 0 5873 5873 5873 5873 5873 5873 5873 5873 0 5873 5873 5873 5873 5873 5873 5873 5873 5873 5873 0 0 0 0 0 0 0 0 0 0 0 0 0 0 5985 5985 5985 5985 5985 5985 5985 5985 5985 0 0 0 0 0 0 0 0 0 0 0 0 0 0 0 0 0 0 0 0 0 0 0 0 0 0 0 0 0 0 0 0 0 0 0 0 0 0 0 0 0 0 0 0 0 0 0 0 0 0 0 0 0 0 0 0 0 0 0 0 0 0 0 0 0 0 0 0 0 0 0 0 0 0 0 0 0 0 0 0 0 0 0 0 0 0 0 0 0 0 0 0 0 0 0 0 0 0 0 0 0 0 0
    0 0 0 0 0 0 0 0 0 0 0 0 0 0 0 0 0 0 0 0 0 0 0 0 0 0 0 0 0 0 0 0 0 4620 4620 4620 4620 4620 4587 4587 4587 4587 4587 4521 4425 4425 4394 4394 4364 4394 4394 4425 4456 4834 5109 5109 5027 4948 4834 4655 4488 4456 4456 4425 4425 4425 4425 4425 4425 4456 4521 4587 4689 4871 5109 5109 0 0 0 0 0 0 0 0 0 0 0 0 0 0 0 0 0 0 0 0 0 0 0 0 0 0 0 0 0 0 0 0 4334 4334 4334 4364 4364 4364 4364 4364 4334 4334 4334 4334 4334 4364 4394 4425 4425 4394 4394 4394 4364 4364 4364 4364 4364 4394 4394 4394 4394 4394 4394 4394 4394 4394 4394 4394 4394 4394 4394 4394 4394 4394 4364 4364 4364 4364 4364 4364 4364 4364 4364 4364 4364 4364 4364 4364 4364 4394 4394 4425 4456 4456 4456 4456 4456 4425 4425 4425 4425 4394 4394 4394 4394 4394 4425 4456 4488 4521 4521 4521 4521 4521 4521 4521 4521 4521 4553 4553 4553 4553 4553 4553 4521 4521 4521 4521 4521 4553 4553 4553 4553 4553 4553 4553 4553 4553 4553 4553 4553 4587 4587 4587 4587 4587 4587 4587 4587 4587 4587 4587 4587 4587 4587 4587 4587 4587 4587 4587 4620 4620 4620 4620 4620 4620 4655 4655 4655 4655 4655 4655 4689 4689 4689 4689 4689 4689 4725 4725 4725 4725 4725 4725 4725 4689 4689 4689 4689 4689 4689 4689 4689 4725 4725 4725 4725 4725 4725 4725 4725 4689 4689 4689 4725 4725 4725 4760 4760 4760 4760 4760 4760 4760 4760 4760 4760 4725 4725 4725 4725 4725 4725 4725 4760 4760 4797 4797 4797 4797 4797 4760 4760 4760 4760 4760 4760 4760 4760 4797 4797 4834 4834 4871 4871 4871 4871 4871 4871 4871 0 0 0 5713 5713 5765 5765 5765 5765 5818 5818 5818 5818 5818 5818 5818 5818 5818 5818 5818 5818 5818 5818 5818 5818 5818 5818 5818 5818 5818 5873 5873 5873 5873 5873 5873 5873 5873 0 0 5873 5873 5873 5873 5873 5873 5873 5873 5873 5873 5873 5873 5873 5873 5873 5873 5873 5873 5873 5873 5873 0 0 0 0 0 0 0 0 0 0 0 0 0 6042 6042 6042 6042 6042 5985 5985 5985 5985 0 0 0 0 0 0 0 0 0 0 0 0 0 0 0 0 0 0 0 0 0 0 0 0 0 0 0 0 0 0 0 0 0 0 0 0 0 0 0 0 0 0 0 0 0 0 0 0 0 0 0 0 0 0 0 0 0 0 0 0 0 0 0 0 0 0 0 0 0 0 0 0 0 0 0 0 0 0 0 0 0 0 0 0 0 0 0 0 0 0 0 0 0 0 0 0 0 0 0 0 0 0 0
    0 0 0 0 0 0 0 0 0 0 0 0 0 0 0 0 0 0 0 0 0 0 0 0 0 0 0 0 0 0 0 0 0 4620 4620 4620 4620 4620 4620 4620 4620 4620 4620 4521 4425 4425 4394 4394 4364 4425 4425 4456 4488 4909 5109 5027 4909 4834 4725 4587 4488 4488 4456 4456 4456 4425 4425 4425 4425 4456 4553 4655 4725 4871 5109 5109 0 0 0 0 0 0 0 0 0 0 0 0 0 0 0 0 0 0 0 0 0 0 0 0 0 0 0 0 0 4334 4334 4334 4334 4334 4334 4334 4334 4334 4334 4334 4334 4334 4334 4334 4334 4334 4364 4425 4394 4394 4394 4364 4364 4364 4364 4364 4364 4394 4394 4394 4394 4394 4394 4394 4394 4394 4394 4394 4394 4394 4394 4394 4394 4394 4364 4364 4364 4364 4364 4364 4364 4334 4334 4334 4334 4364 4364 4364 4364 4364 4394 4425 4425 4456 4456 4456 4456 4425 4425 4425 4425 4394 4394 4394 4394 4394 4425 4488 4521 4521 4521 4521 4521 4521 4521 4521 4521 4521 4521 4521 4521 4521 4521 4521 4521 4521 4521 4521 4521 4521 4553 4553 4553 4553 4553 4553 4553 4553 4553 4553 4553 4553 4587 4587 4587 4587 4587 4587 4587 4587 4587 4587 4587 4587 4587 4587 4587 4587 4587 4587 4620 4620 4620 4620 4620 4620 4620 4655 4655 4655 4655 4655 4655 4655 4689 4689 4689 4689 4725 4725 4725 4725 4725 4725 4725 4689 4689 4689 4689 4689 4689 4689 4689 4725 4725 4725 4725 4725 4725 4725 4725 4689 4689 4689 4725 4725 4725 4725 4760 4760 4760 4760 4760 4760 4760 4760 4760 4725 4725 4725 4725 4725 4725 4725 4760 4760 4797 4797 4797 4797 4797 4760 4760 4760 4760 4760 4760 4760 4760 4797 4797 4834 4834 4871 4871 4871 4871 4871 4871 4871 0 0 0 5713 5713 5765 5765 5765 5765 5765 5818 5818 5818 5818 5818 5818 5818 5765 5765 5765 5818 5818 5818 5818 5818 5818 5818 5818 5818 5873 5873 5873 5873 5873 5873 5873 5873 5873 0 0 5873 5873 5873 5873 5873 5873 5873 5873 5873 5873 5873 5873 5873 5873 5873 5873 5873 5873 5873 5873 5873 0 0 0 0 0 0 0 0 0 5873 5873 5873 5873 5985 6042 6042 6042 6042 6042 6042 6042 6042 0 0 0 0 0 0 0 0 0 0 0 0 0 0 0 0 0 0 0 0 0 0 0 0 0 0 0 0 0 0 0 0 0 0 0 0 0 0 0 0 0 0 0 0 0 0 0 0 0 0 0 0 0 0 0 0 0 0 0 0 0 0 0 0 0 0 0 0 0 0 0 0 0 0 0 0 0 0 0 0 0 0 0 0 0 0 0 0 0 0 0 0 0 0 0 0 0 0 0 0 0 0 0
    0 0 0 0 0 0 0 0 0 0 0 0 0 0 0 0 0 0 0 0 0 0 0 0 0 0 0 0 0 0 0 0 0 4620 4620 4620 4620 4620 4620 4655 4655 4655 4655 4587 4456 4425 4425 4394 4394 4456 4488 4553 4655 5109 5109 4948 4834 4760 4655 4553 4488 4488 4488 4488 4456 4456 4425 4425 4456 4488 4587 4655 4725 4871 5109 5109 0 0 0 0 0 0 0 0 0 0 0 0 0 0 0 0 0 0 0 0 0 0 0 0 0 0 0 0 4334 4334 4334 4334 4334 4334 4334 4334 4334 4334 4334 4334 4334 4334 4334 4334 4334 4334 4334 4425 4394 4394 4364 4364 4364 4364 4364 4364 4364 4364 4394 4394 4394 4394 4394 4394 4394 4394 4394 4394 4394 4394 4394 4394 4394 4364 4364 4364 4364 4364 4364 4364 4334 4334 4334 4334 4334 4334 4334 4364 4364 4364 4394 4425 4425 4456 4456 4456 4425 4425 4425 4425 4425 4394 4394 4394 4394 4425 4456 4521 4521 4521 4521 4521 4521 4521 4521 4521 4521 4521 4521 4521 4521 4521 4521 4521 4521 4521 4521 4521 4521 4521 4521 4553 4553 4553 4553 4553 4553 4553 4553 4553 4553 4553 4553 4553 4587 4587 4587 4587 4587 4587 4587 4587 4587 4587 4587 4587 4587 4587 4587 4587 4620 4620 4620 4620 4620 4655 4655 4655 4655 4655 4655 4655 4655 4655 4655 4655 4689 4689 4689 4689 4725 4725 4725 4725 4725 4689 4689 4689 4689 4689 4689 4689 4689 4725 4725 4725 4725 4725 4725 4725 4725 4689 4689 4689 4725 4725 4725 4725 4760 4760 4760 4760 4760 4760 4760 4760 4760 4725 4725 4725 4725 4725 4725 4725 4760 4760 4797 4797 4797 4797 4760 4760 4760 4760 4760 4760 4760 4760 4760 4797 4797 4834 4834 4871 4871 4871 4871 4871 4871 4871 0 0 0 5713 5713 5765 5765 5765 5765 5765 5818 5818 5818 5818 5818 5818 5765 5765 5765 5765 5765 5818 5818 5818 5818 5818 5818 5818 5818 5873 5873 5873 5873 5873 5873 5873 5873 5873 0 5873 5873 5873 5873 5873 5873 5873 5873 5873 5873 5873 5873 5873 5873 5873 5873 5873 5873 5873 5873 5873 5873 0 0 0 0 0 0 0 5873 5873 5873 5873 5928 5928 5985 6042 6042 6042 6042 6042 6042 6042 6042 0 0 0 0 0 0 0 0 0 0 0 0 0 0 0 0 0 0 0 0 0 0 0 0 0 0 0 0 0 0 0 0 0 0 0 0 0 0 0 0 0 0 0 0 0 0 0 0 0 0 0 0 0 0 0 0 0 0 0 0 0 0 0 0 0 0 0 0 0 0 0 0 0 0 0 0 0 0 0 0 0 0 0 0 0 0 0 0 0 0 0 0 0 0 0 0 0 0 0 0 0 0 0
    0 0 0 0 0 0 0 0 0 0 0 0 0 0 0 0 0 0 0 0 0 0 0 0 0 0 0 0 0 0 0 0 0 4655 4655 4655 4655 4655 4655 4655 4689 4689 4689 4655 4587 4553 4488 4425 4394 4394 4364 0 0 5109 5109 4871 4725 4655 4620 4553 4488 4488 4488 4488 4456 4456 4456 4456 4456 4456 4587 4655 4725 4834 5109 5109 0 0 0 0 0 0 0 0 0 0 0 0 0 0 0 0 0 0 0 0 4689 4689 4689 4689 4689 4689 0 0 4334 4334 4334 4334 4334 4334 4334 4334 4334 4334 4364 4364 4364 4364 4364 4364 4364 4364 4364 4394 4394 4394 4364 4364 4364 4364 4364 4364 4364 4364 4364 4394 4394 4394 4364 4364 4394 4394 4394 4394 4394 4394 4394 4394 4394 4364 4364 4364 4364 4364 4364 4334 4334 4334 4334 4334 4334 4334 4334 4334 4364 4364 4394 4425 4425 4456 4456 4425 4425 4425 4425 4425 4394 4394 4394 4394 4394 4425 4488 4521 4521 4521 4521 4521 4521 4521 4521 4521 4521 4521 4521 4521 4521 4521 4521 4521 4488 4488 4521 4521 4521 4521 4521 4521 4553 4553 4553 4553 4553 4553 4553 4553 4553 4553 4553 4553 4553 4553 4587 4587 4587 4587 4587 4587 4587 4587 4587 4587 4587 4587 4587 4587 4620 4620 4620 4620 4655 4655 4655 4655 4655 4655 4655 4655 4655 4655 4655 4655 4689 4689 4689 4689 4689 4689 4689 4689 4689 4689 4689 4689 4689 4689 4689 4689 4689 4725 4725 4725 4760 4760 4725 4725 4725 4725 4725 4725 4725 4725 4725 4725 4760 4760 4760 4760 4760 4760 4760 4760 4760 4725 4725 4725 4725 4725 4725 4725 4760 4760 4797 4797 4797 4760 4760 4760 4760 4760 4760 4760 4760 4760 4760 4797 4797 4834 4834 4871 4871 4871 4871 4871 4871 4871 0 0 0 5713 5713 5765 5765 5765 5765 5765 5765 5765 5818 5818 5818 5765 5765 5765 5765 5765 5765 5765 5765 5818 5818 5818 5818 5818 5818 5873 5873 5873 5873 5873 5873 5873 5873 5873 0 5873 5873 5873 5873 5873 5873 5873 5873 5873 5873 5873 5873 5873 5873 5873 5873 5873 5873 5873 5873 5873 5873 0 0 5873 5873 5873 5873 5873 5873 5873 5873 5873 5928 5928 5985 5985 6042 6042 6042 6042 6042 6042 6042 0 0 0 0 0 0 0 0 0 0 0 0 0 0 0 0 0 0 0 0 0 0 0 0 0 0 0 0 0 0 0 0 0 0 0 0 0 0 0 0 0 0 0 0 0 0 0 0 0 0 0 0 0 0 0 0 0 0 0 0 0 0 0 0 0 0 0 0 0 0 0 0 0 0 0 0 0 0 0 0 0 0 0 0 0 0 0 0 0 0 0 0 0 0 0 0 0 0 0 0 0 0 0
    0 0 0 0 0 0 0 0 0 0 0 0 0 0 0 0 0 0 0 0 0 0 0 0 0 0 0 0 0 0 0 0 0 4655 4655 4655 4655 4689 4689 4689 4689 4689 4689 4689 4689 4689 4689 4689 4689 4689 4655 0 0 0 5109 4689 4587 4553 4553 4521 4488 4488 4521 4488 4488 4456 4456 4456 4456 4456 4587 4689 4760 4871 5109 5109 0 0 0 0 0 0 0 0 0 0 0 0 0 0 0 0 0 0 0 4689 4689 4689 4689 4689 4689 4689 0 0 4334 4334 4334 4334 4334 4334 4334 4334 4334 4364 4364 4364 4364 4364 4364 4364 4364 4364 4364 4394 4394 4394 4394 4394 4364 4364 4364 4364 4364 4364 4364 4364 4364 4364 4364 4364 4394 4394 4394 4394 4394 4394 4394 4394 4364 4364 4364 4364 4364 4364 4364 4334 4334 4334 4334 4334 4334 4334 4334 4334 4334 4364 4394 4394 4425 4456 4425 4425 4425 4425 4394 4394 4394 4394 4394 4425 4425 4456 4521 4521 4521 4521 4521 4521 4521 4521 4521 4521 4521 4521 4521 4521 4521 4521 4488 4488 4488 4488 4488 4488 4521 4521 4521 4521 4553 4553 4553 4553 4553 4553 4553 4553 4553 4553 4553 4553 4553 4553 4553 4553 4587 4587 4587 4587 4587 4587 4587 4587 4587 4587 4587 4620 4620 4620 4620 4655 4655 4655 4655 4655 4655 4655 4655 4655 4655 4655 4655 4655 4689 4689 4689 4689 4689 4689 4689 4689 4689 4689 4689 4689 4689 4689 4689 4689 4689 4725 4725 4725 4760 4760 4725 4725 4725 4725 4725 4725 4725 4725 4725 4725 4760 4760 4760 4760 4760 4760 4760 4760 4760 4725 4725 4725 4725 4725 4725 4725 4760 4760 4760 4797 4797 4760 4760 4760 4760 4760 4760 4760 4760 4760 4797 4797 4797 4834 4834 4871 4871 4871 4871 4871 4871 0 0 0 0 5713 5713 5765 5765 5765 5765 5765 5765 5765 5765 5765 5765 5765 5765 5765 5765 5765 5765 5765 5765 5818 5818 5818 5818 5818 5818 5873 5873 5873 5873 5873 5873 5873 5873 5873 0 5873 5873 5873 5873 5873 5873 5873 5873 5873 5873 5873 5873 5873 5873 5873 5873 5873 5873 5873 5873 5873 5873 0 5928 5928 5928 5928 5928 5928 5928 5928 5928 5928 5928 5928 5985 5985 6042 6042 6042 6042 6042 6042 6042 0 0 0 0 0 0 0 0 0 0 0 0 0 0 0 0 0 0 0 0 0 0 0 0 0 0 0 0 0 0 0 0 0 0 0 0 0 0 0 0 0 0 0 0 0 0 0 0 0 0 0 0 0 0 0 0 0 0 0 0 0 0 0 0 0 0 0 0 0 0 0 0 0 0 0 0 0 0 0 0 0 0 0 0 0 0 0 0 0 0 0 0 0 0 0 0 0 0 0 0 0 0 0
    0 0 0 0 0 0 0 0 0 0 0 0 0 0 0 0 0 0 0 0 0 0 0 0 0 0 0 0 0 0 0 0 0 4689 4689 4689 4689 4689 4689 4689 4689 4689 4689 4689 4689 4689 4689 4689 4689 4689 4655 0 0 0 0 4488 4488 4488 4488 4488 4488 4488 4521 4488 4488 4456 4456 4456 4456 4456 4587 4689 4725 4834 5109 5109 0 0 0 0 0 0 0 0 0 0 0 0 0 0 0 0 0 0 0 4689 4689 4689 4689 4689 4689 4689 4689 0 4334 4334 4334 4334 4334 4334 4334 4334 4334 4364 4364 4364 4364 4364 4364 4364 4364 4364 4364 4394 4394 4394 4394 4394 4394 4364 4364 4364 4364 4364 4364 4364 4364 4364 4364 4394 4394 4394 4394 4394 4394 4394 4394 4394 4364 4364 4364 4364 4334 4334 4334 4334 4334 4334 4334 4334 4334 4334 4334 4334 4364 4364 4394 4394 4425 4425 4425 4425 4394 4394 4394 4394 4394 4394 4394 4425 4425 4456 4488 4521 4521 4521 4521 4521 4521 4521 4521 4521 4521 4521 4521 4521 4521 4488 4488 4488 4488 4488 4488 4488 4488 4521 4521 4521 4553 4553 4553 4553 4587 4587 4553 4553 4553 4553 4553 4553 4553 4553 4553 4553 4553 4587 4587 4587 4587 4587 4620 4620 4620 4620 4620 4620 4620 4620 4620 4655 4655 4655 4655 4655 4655 4655 4655 4655 4655 4655 4655 4655 4655 4689 4689 4689 4689 4689 4689 4689 4689 4689 4689 4689 4689 4689 4689 4689 4689 4725 4725 4725 4725 4725 4725 4725 4725 4725 4725 4725 4725 4725 4725 4725 4760 4760 4760 4760 4760 4760 4760 4760 4760 4725 4725 4725 4725 4725 4725 4725 4725 4760 4760 4760 4760 4760 4760 4760 4760 4760 4760 4760 4760 4760 4797 4797 4834 4834 4834 4834 4871 4871 4871 4871 4871 0 0 0 0 5713 5713 5765 5765 5765 5765 5765 5765 5765 5765 5765 5765 5765 5765 5765 5765 5765 5765 5765 5765 5818 5818 5818 5818 5818 5818 5873 5873 5873 5873 5873 5873 5873 5873 5873 0 5873 5873 5873 5873 5873 5873 5873 5873 5873 5873 5873 5873 5873 5873 5873 5873 5873 5873 5873 5873 5873 5873 5985 5985 5928 5928 5928 5928 5928 5928 5928 5928 5928 5928 5928 5985 5985 6042 6042 6042 6042 6042 6042 6042 0 0 0 0 0 0 0 0 0 0 0 0 0 0 0 0 0 0 0 0 0 0 0 0 0 0 0 0 0 0 0 0 0 0 0 0 0 0 0 0 0 0 0 0 0 0 0 0 0 0 0 0 0 0 0 0 0 0 0 0 0 0 0 0 0 0 0 0 0 0 0 0 0 0 0 0 0 0 0 0 0 0 0 0 0 0 0 0 0 0 0 0 0 0 0 0 0 0 0 0 0 0 0
    0 0 0 0 0 0 0 0 0 0 0 0 0 0 0 0 0 0 0 0 0 0 0 0 0 0 0 0 0 0 0 0 0 4725 4725 4725 4725 4725 4725 4725 4725 4725 4725 4725 4725 4689 4689 4689 4689 4689 4655 0 0 4689 4689 4553 4521 4488 4488 4488 4521 4553 4620 4725 4760 4797 4689 4587 4456 4488 4587 4620 4689 4797 5109 5109 5109 5109 5109 5109 5109 0 0 0 0 0 0 0 0 0 0 0 0 0 0 4689 4689 4689 4689 4689 4689 4689 4689 4689 4425 4334 4334 4334 4334 4334 4334 4334 4364 4364 4364 4364 4364 4364 4394 4394 4364 4394 4394 4425 4425 4425 4425 4394 4394 4394 4394 4394 4394 4394 4394 4394 4394 4394 4394 4394 4394 4394 4394 4394 4394 4394 4394 4394 4394 4364 4364 4364 4364 4364 4364 4334 4334 4334 4334 4334 4334 4334 4334 4364 4364 4364 4394 4394 4425 4425 4425 4394 4394 4394 4394 4394 4394 4394 4394 4425 4425 4456 4488 4488 4488 4521 4521 4521 4521 4521 4521 4521 4521 4521 4521 4521 4488 4488 4488 4488 4456 4456 4488 4488 4488 4521 4521 4521 4553 4553 4553 4553 4587 4553 4553 4553 4553 4553 4553 4553 4553 4553 4553 4553 4587 4587 4587 4620 4620 4620 4620 4620 4620 4620 4620 4620 4620 4620 4655 4655 4655 4655 4655 4655 4655 4655 4655 4655 4655 4655 4655 4655 4655 4689 4689 4689 4689 4689 4689 4689 4689 4689 4689 4689 4689 4689 4689 4725 4725 4725 4725 4725 4725 4725 4725 4725 4725 4725 4725 4725 4760 4760 4760 4760 4760 4760 4760 4760 4760 4760 4760 4760 4760 4725 4725 4725 4725 4725 4725 4725 4725 4760 4760 4760 4760 4760 4760 4760 4760 4760 4760 4760 4760 4797 4797 4797 4834 4834 4834 4834 4834 4834 4834 4834 0 0 0 0 0 5713 5713 5713 5765 5765 5765 5765 5765 5765 5765 5765 5765 5765 5765 5765 5765 5765 5765 5765 5765 5765 5818 5818 5818 5818 5818 5873 5873 5873 5873 5873 5873 5873 5873 5873 5873 5873 5873 5873 5873 5873 5873 5873 5873 5873 5873 5873 5873 5873 5873 5873 5873 5873 5873 5873 5873 5873 5873 5985 5985 5928 5928 5928 5928 5928 5928 5928 5928 5928 5928 5928 5985 5985 5985 6042 6042 6042 6042 6042 6042 0 0 0 0 0 0 0 0 0 0 0 0 0 0 0 0 0 0 0 0 0 0 0 0 0 0 0 0 0 0 0 0 0 0 0 0 0 0 0 0 0 0 0 0 0 0 0 0 0 0 0 0 0 0 0 0 0 0 0 0 0 0 0 0 0 0 0 0 0 0 0 0 0 0 0 0 0 0 0 0 0 0 0 0 0 0 0 0 0 0 0 0 0 0 0 0 0 0 0 0 0 0 0
    0 0 0 0 0 0 0 0 0 0 0 0 0 0 0 0 0 0 0 0 0 0 0 0 0 0 0 0 0 0 0 0 0 4725 4725 4725 4725 4725 4725 4725 4760 4725 4725 4725 4725 4725 4725 4725 4725 4689 4655 0 4689 4689 4725 4655 4587 4553 4521 4521 4587 4655 4760 4797 4797 4797 4797 4797 4797 0 0 0 0 0 5109 5109 5109 5109 5109 5109 5109 0 0 0 0 0 0 0 0 0 0 0 0 0 0 4689 4689 4689 4689 4689 4689 4689 4689 4689 4587 4488 4425 4394 4364 4334 4364 4364 4364 4364 4364 4394 4394 4394 4394 4394 4394 4394 4425 4425 4425 4425 4425 4425 4425 4425 4394 4394 4394 4394 4394 4394 4394 4394 4394 4394 4394 4394 4394 4394 4394 4394 4394 4394 4394 4364 4364 4364 4364 4364 4364 4364 4364 4334 4334 4334 4334 4334 4364 4364 4364 4394 4394 4394 4425 4425 4425 4425 4394 4394 4394 4425 4394 4394 4394 4425 4425 4425 4456 4456 4488 4488 4488 4488 4488 4488 4488 4521 4521 4521 4521 4521 4488 4488 4488 4488 4456 4456 4488 4488 4488 4488 4521 4521 4553 4553 4553 4587 4587 4553 4553 4553 4553 4553 4553 4553 4553 4553 4553 4553 4587 4587 4620 4620 4620 4620 4620 4620 4620 4620 4620 4620 4620 4655 4655 4655 4655 4655 4655 4655 4655 4655 4655 4655 4655 4655 4655 4655 4689 4689 4689 4689 4689 4689 4689 4689 4689 4689 4689 4689 4689 4725 4725 4725 4725 4725 4725 4725 4725 4725 4725 4725 4725 4725 4725 4760 4760 4760 4760 4760 4760 4760 4725 4725 4760 4760 4760 4760 4725 4725 4725 4725 4725 4689 4725 4725 4725 4725 4760 4760 4760 4760 4760 4760 4760 4760 4760 4760 4797 4797 4797 4797 4834 4834 4834 4834 4834 4834 4834 4834 0 0 0 0 0 0 5713 5713 5713 5713 5713 5765 5765 5765 5765 5765 5765 5765 5765 5765 5765 5765 5765 5765 5765 5765 5765 5765 5818 5818 5818 5818 5873 5873 5873 5873 5873 5873 5873 5873 5873 5873 5873 5873 5873 5873 5873 5873 5873 5873 5873 5873 5873 5873 5873 5873 5873 5873 5873 5873 5873 5873 5873 5985 5985 5928 5928 5928 5928 5928 5928 5928 5928 5928 5928 5928 5985 5985 5985 6042 6042 6042 6042 6042 6042 0 0 0 0 0 0 0 0 0 0 0 0 0 0 0 0 0 0 0 0 0 0 0 0 0 0 0 0 0 0 0 0 0 0 0 0 0 0 0 0 0 0 0 0 0 0 0 0 0 0 0 0 0 0 0 0 0 0 0 0 0 0 0 0 0 0 0 0 0 0 0 0 0 0 0 0 0 0 0 0 0 0 0 0 0 0 0 0 0 0 0 0 0 0 0 0 0 0 0 0 0 0 0
    0 0 0 0 0 0 0 0 0 0 0 0 0 0 0 0 0 0 0 0 0 0 0 0 0 0 0 0 0 0 0 0 0 4725 4725 4725 4725 4760 4760 4760 4760 4760 4760 4760 4725 4725 4725 4725 4725 4725 4655 0 4689 4689 4725 4689 4655 4620 4587 4587 4689 4760 4797 4797 4797 4797 4797 4797 4797 4797 0 0 0 0 5109 5109 5109 5109 5109 5109 5109 0 0 0 0 0 0 0 0 0 0 0 0 0 0 4725 4725 4725 4725 4725 4689 4689 4689 4689 4655 4587 4553 4488 4425 4394 4364 4364 4364 4364 4364 4394 4394 4394 4394 4425 4425 4425 4425 4425 4425 4425 4425 4425 4425 4425 4425 4425 4425 4425 4394 4394 4394 4394 4394 4394 4394 4394 4394 4394 4394 4394 4394 4394 4394 4394 4364 4364 4364 4364 4364 4364 4364 4364 4364 4364 4364 4364 4364 4364 4394 4394 4394 4394 4425 4425 4425 4425 4425 4425 4425 4425 4425 4394 4394 4394 4394 4425 4425 4456 4456 4488 4488 4488 4488 4488 4488 4488 4488 4521 4521 4488 4488 4488 4488 4488 4488 4488 4488 4488 4488 4521 4521 4521 4553 4553 4553 4587 4587 4553 4553 4553 4553 4553 4553 4553 4553 4553 4553 4587 4587 4620 4620 4655 4655 4655 4655 4620 4620 4620 4620 4620 4620 4655 4655 4655 4655 4655 4655 4655 4655 4655 4655 4655 4655 4655 4655 4689 4689 4689 4689 4689 4689 4689 4689 4689 4689 4689 4689 4689 4725 4725 4725 4725 4725 4725 4725 4725 4725 4725 4725 4725 4725 4725 4760 4760 4760 4760 4760 4760 4760 4760 4725 4725 4725 4725 4725 4725 4725 4725 4725 4725 4725 4689 4725 4725 4725 4725 4725 4760 4760 4760 4760 4760 4760 4760 4760 4760 4797 4797 4797 4797 4797 4834 4834 4834 4834 4834 4834 4834 0 0 0 0 0 0 5713 5713 5713 5713 5713 5713 5765 5765 5765 5765 5765 5765 5765 5765 5765 5765 5765 5765 5765 5765 5765 5765 5765 5818 5818 5818 5818 5873 5873 5873 5873 5873 5873 5873 5873 5873 5873 5873 5873 5873 5873 5873 5873 5873 5873 5873 5873 5873 5873 5873 5873 5873 5873 5873 5873 5873 0 5985 5985 5928 5928 5928 5928 5928 5928 5928 5928 5928 5928 5928 5985 5985 5985 5985 6042 6042 6042 6042 6042 0 0 0 0 0 0 0 0 0 0 0 0 0 0 0 0 0 0 0 0 0 0 0 0 0 0 0 0 0 0 0 0 0 0 0 0 0 0 0 0 0 0 0 0 0 0 0 0 0 0 0 0 0 0 0 0 0 0 0 0 0 0 0 0 0 0 0 0 0 0 0 0 0 0 0 0 0 0 0 0 0 0 0 0 0 0 0 0 0 0 0 0 0 0 0 0 0 0 0 0 0 0 0
    0 0 0 0 0 0 0 0 0 0 0 0 0 0 0 0 0 0 0 0 0 0 0 0 0 0 0 0 0 0 0 0 0 4760 4760 4760 4760 4760 4760 4797 4797 4797 4797 4760 4760 4760 4760 4760 4760 4797 4834 4760 4725 4689 4725 4725 4689 4689 4725 4725 4760 4797 4797 4797 4797 4797 4797 4797 4797 4797 0 0 0 0 5109 5109 5109 5109 5109 5109 5109 5109 5109 5109 5109 0 0 0 0 0 0 0 0 0 0 4725 4725 4725 4725 4725 4689 4689 4689 4689 4689 4655 4620 4553 4521 4456 4394 4364 4364 4364 4394 4394 4425 4425 4425 4425 4425 4425 4425 4425 4425 4425 4425 4456 4456 4456 4425 4425 4425 4425 4425 4425 4425 4425 4394 4394 4394 4394 4394 4394 4394 4394 4394 4394 4394 4394 4394 4394 4364 4364 4364 4364 4364 4364 4364 4364 4364 4394 4394 4394 4394 4394 4394 4394 4394 4425 4394 4425 4425 4425 4425 4425 4425 4394 4394 4394 4394 4394 4425 4425 4456 4456 4488 4488 4488 4488 4488 4488 4488 4488 4488 4488 4488 4488 4488 4488 4488 4488 4488 4488 4488 4521 4521 4521 4553 4553 4553 4553 4553 4553 4553 4553 4553 4521 4553 4553 4553 4553 4587 4587 4620 4620 4655 4655 4655 4655 4655 4655 4655 4655 4655 4655 4655 4655 4655 4655 4655 4655 4655 4655 4655 4655 4655 4655 4655 4655 4689 4689 4689 4689 4689 4689 4689 4689 4689 4689 4689 4689 4689 4689 4725 4725 4725 4725 4725 4725 4725 4725 4725 4725 4725 4725 4725 4760 4760 4760 4760 4760 4760 4760 4760 4760 4725 4725 4725 4725 4725 4725 4725 4725 4725 4725 4725 4725 4689 4725 4725 4725 4725 4760 4760 4760 4760 4760 4760 4760 4760 4797 4797 4797 4797 4797 4797 4797 4797 4834 4834 4834 4834 4834 0 0 0 0 0 0 5713 5713 5713 5713 5713 5713 5765 5765 5765 5765 5765 5765 5765 5765 5765 5765 5765 5765 5765 5765 5765 5765 5765 5818 5818 5818 5818 5818 5873 5873 5873 5873 5873 5873 5873 5873 5873 5873 5873 5873 5873 5873 5873 5873 5873 5873 5873 5873 5873 5873 5873 5873 5873 5873 5873 5873 0 5985 5985 5928 5928 5928 5928 5928 5928 5928 5928 5928 5928 5928 5985 5985 5985 5985 6042 6042 6042 6042 6042 0 0 0 0 0 0 0 0 0 0 0 0 0 0 0 0 0 0 0 0 0 0 0 0 0 0 0 0 0 0 0 0 0 0 0 0 0 0 0 0 0 0 0 0 0 0 0 0 0 0 0 0 0 0 0 0 0 0 0 0 0 0 0 0 0 0 0 0 0 0 0 0 0 0 0 0 0 0 0 0 0 0 0 0 0 0 0 0 0 0 0 0 0 0 0 0 0 0 0 0 0 0 0
    0 0 0 0 0 0 0 0 0 0 0 0 0 0 0 0 0 0 0 0 0 0 0 0 0 0 0 0 0 0 0 0 0 4760 4760 4760 4760 4760 4797 4797 4797 4797 4797 4797 4760 4760 4760 4760 4760 4760 4689 4689 4689 4689 4689 4689 4689 4725 4797 4797 4797 4797 4797 4797 4797 4797 4797 4797 4797 4797 0 0 0 0 5109 5109 5109 5067 5067 5067 5067 5027 5151 5151 5151 0 0 0 0 0 0 5151 5151 5151 5151 4797 4725 4725 4725 4725 4725 4689 4689 4689 4689 4689 4689 4655 4587 4521 4425 4394 4394 4394 4394 4394 4425 4425 4425 4425 4425 4425 4425 4425 4425 4456 4456 4456 4456 4456 4456 4425 4425 4425 4425 4425 4425 4425 4425 4425 4394 4394 4394 4394 4394 4394 4394 4394 4394 4394 4394 4394 4394 4364 4364 4364 4364 4364 4364 4364 4394 4394 4394 4394 4394 4394 4394 4394 4394 4394 4394 4425 4425 4425 4425 4425 4425 4394 4394 4394 4394 4394 4394 4425 4425 4456 4456 4456 4488 4488 4488 4488 4488 4488 4488 4488 4488 4488 4488 4488 4488 4488 4488 4488 4488 4521 4521 4521 4553 4553 4553 4553 4553 4553 4553 4553 4553 4521 4553 4553 4553 4587 4587 4620 4620 4655 4655 4655 4655 4655 4655 4655 4655 4655 4655 4655 4655 4655 4655 4655 4655 4655 4655 4655 4655 4655 4655 4655 4655 4689 4689 4689 4689 4689 4689 4689 4689 4689 4689 4689 4689 4689 4689 4689 4725 4725 4725 4725 4725 4725 4725 4725 4725 4725 4725 4725 4725 4760 4760 4760 4760 4760 4760 4760 4760 4760 4760 4725 4725 4725 4725 4725 4725 4725 4725 4725 4725 4725 4725 4725 4725 4725 4725 4760 4760 4760 4760 4760 4760 4760 4760 4797 4797 4797 4797 4797 4797 4797 4797 4797 4797 4797 4834 0 0 0 0 0 0 0 5713 5713 5713 5713 5713 5713 5765 5765 5765 5765 5765 5765 5765 5765 5765 5765 5765 5765 5765 5765 5765 5765 5765 5765 5818 5818 5818 5818 5818 5873 5873 5873 5873 5873 5873 5818 5818 5873 5873 5873 5873 5873 5873 5873 5873 5873 5873 5873 5873 5873 5873 5873 5873 5873 5873 5873 0 5985 5985 5928 5928 5928 5928 5928 5928 5928 5928 5928 5928 5928 5985 5985 5985 5985 5985 5985 5985 5985 5985 0 0 0 0 0 0 0 0 0 0 0 0 0 0 0 0 0 0 0 0 0 0 0 0 0 0 0 0 0 0 0 0 0 0 0 0 0 0 0 0 0 0 0 0 0 0 0 0 0 0 0 0 0 0 0 0 0 0 0 0 0 0 0 0 0 0 0 0 0 0 0 0 0 0 0 0 0 0 0 0 0 0 0 0 0 0 0 0 0 0 0 0 0 0 0 0 0 0 0 0 0 0 0
    0 0 0 0 0 0 0 0 0 0 0 0 0 0 0 0 0 0 0 0 0 0 0 0 0 0 0 0 0 0 0 0 0 4760 4760 4760 4760 4760 4797 4797 4797 4797 4797 4797 4760 4760 4760 4760 4725 4725 4655 4655 4655 4655 4689 4689 4655 4655 4689 4689 4725 4760 4797 4797 4797 4797 4797 4797 4760 4689 4553 4553 4553 0 5109 5109 5067 4987 4948 4909 4948 4909 4987 5027 5151 5109 0 0 0 0 0 5151 5151 5151 5151 4909 4760 4725 4725 4725 4725 4689 4689 4655 4655 4620 4620 4620 4587 4521 4456 4394 4394 4394 4394 4394 4425 4425 4425 4425 4425 4425 4425 4425 4425 4456 4456 4456 4456 4456 4456 4456 4425 4425 4425 4425 4425 4425 4425 4425 4425 4394 4394 4394 4394 4394 4394 4394 4394 4394 4394 4394 4394 4394 4364 4364 4364 4364 4364 4394 4394 4394 4394 4394 4394 4394 4394 4394 4394 4394 4394 4425 4425 4425 4425 4425 4394 4394 4394 4394 4394 4394 4394 4425 4425 4456 4456 4456 4456 4488 4488 4488 4488 4488 4488 4488 4488 4488 4488 4488 4488 4488 4488 4488 4488 4521 4521 4521 4553 4553 4553 4553 4553 4553 4553 4553 4553 4521 4553 4553 4553 4587 4587 4620 4655 4655 4655 4655 4655 4655 4655 4655 4655 4655 4655 4655 4655 4655 4655 4655 4655 4655 4655 4655 4655 4655 4655 4655 4655 4689 4689 4689 4689 4689 4689 4689 4689 4689 4689 4689 4689 4689 4689 4689 4725 4725 4725 4725 4725 4725 4725 4725 4725 4725 4725 4725 4725 4725 4760 4760 4760 4760 4760 4760 4760 4760 4760 4760 4760 4760 4760 4725 4725 4725 4725 4725 4725 4725 4725 4725 4725 4725 4725 4760 4760 4760 4760 4797 4797 4797 4797 4797 4797 4760 4760 4760 4797 4797 4797 4797 4797 4797 4797 0 0 0 0 0 0 0 5713 5713 5713 5713 5713 5765 5765 5765 5765 5765 5765 5765 5765 5765 5765 5765 5765 5765 5765 5765 5765 5765 5765 5765 5765 5818 5818 5818 5818 5818 5818 5818 5818 5818 5818 5818 5818 5873 5873 5873 5873 5873 5873 5873 5873 5873 5873 5873 5873 5873 5873 5873 5873 5873 5873 5873 0 5928 5928 5928 5928 5928 5928 5928 5928 5928 5928 5928 5928 5928 5985 5985 5985 5985 5985 5985 5985 5985 5985 0 0 0 0 0 0 0 0 0 0 0 0 0 0 0 0 0 0 0 0 0 0 0 0 0 0 0 0 0 0 0 0 0 0 0 0 0 0 0 0 0 0 0 0 0 0 0 0 0 0 0 0 0 0 0 0 0 0 0 0 0 0 0 0 0 0 0 0 0 0 0 0 0 0 0 0 0 0 0 0 0 0 0 0 0 0 0 0 0 0 0 0 0 0 0 0 0 0 0 0 0 0 0
    0 0 0 0 0 0 0 0 0 0 0 0 0 0 0 0 0 0 0 0 0 0 0 0 0 0 0 0 0 0 0 0 0 4760 4760 4760 4760 4760 4797 4797 4797 4797 4797 4797 4760 4760 4760 4725 4689 4689 4620 4620 4655 4655 4655 4655 4620 4587 4587 4587 4620 4655 4725 4725 4725 4725 4725 4725 4655 4587 4488 4488 4521 0 5109 4948 4909 4834 4797 4797 4797 4797 4797 4797 4797 4620 4456 4456 0 0 0 5151 5151 5027 4909 4834 4760 4689 4725 4725 4725 4689 4655 4620 4587 4587 4553 4553 4521 4488 4425 4394 4394 4364 4364 4394 4394 4394 4425 4425 4425 4425 4425 4425 4425 4425 4456 4456 4456 4456 4456 4456 4425 4425 4425 4425 4425 4425 4425 4425 4425 4425 4394 4394 4394 4394 4394 4394 4394 4394 4394 4394 4394 4394 4394 4394 4394 4394 4394 4394 4394 4394 4394 4394 4394 4394 4394 4394 4394 4394 4394 4394 4425 4425 4425 4394 4394 4394 4394 4364 4364 4394 4394 4425 4425 4456 4456 4456 4456 4488 4488 4488 4488 4488 4488 4488 4488 4488 4488 4488 4488 4488 4488 4488 4488 4488 4521 4521 4521 4553 4553 4553 4553 4553 4553 4553 4521 4521 4553 4553 4553 4587 4587 4620 4655 4655 4655 4655 4655 4655 4655 4655 4655 4655 4655 4655 4655 4655 4655 4655 4655 4655 4655 4655 4655 4655 4655 4655 4655 4689 4689 4689 4689 4689 4689 4689 4689 4689 4689 4689 4689 4689 4689 4689 4725 4725 4725 4725 4725 4725 4725 4725 4725 4725 4725 4725 4725 4725 4725 4760 4760 4760 4760 4760 4760 4760 4760 4760 4760 4760 4760 4760 4725 4725 4725 4725 4725 4725 4725 4725 4725 4760 4760 4760 4760 4760 4797 4797 4797 4797 4797 4797 4797 4797 4797 4797 4797 4797 4797 4797 4797 4797 4797 4797 0 0 0 0 0 0 5713 5713 5713 5713 5713 5765 5765 5765 5765 5765 5765 5765 5765 5765 5765 5765 5765 5765 5765 5765 5765 5765 5765 5765 5765 5818 5818 5818 5818 5818 5818 5818 5818 5818 5818 5818 5818 5873 5873 5873 5873 5873 5873 5873 5873 5873 5873 5873 5873 5873 5873 5873 5873 5873 5873 5873 0 5928 5928 5928 5928 5928 5928 5928 5928 5928 5928 5928 5928 5928 5985 5985 5985 5985 5985 5985 5985 5985 0 0 0 0 0 0 0 0 0 0 0 0 0 0 0 0 0 0 0 0 0 0 0 0 0 0 0 0 0 0 0 0 0 0 0 0 0 0 0 0 0 0 0 0 0 0 0 0 0 0 0 0 0 0 0 0 0 0 0 0 0 0 0 0 0 0 0 0 0 0 0 0 0 0 0 0 0 0 0 0 0 0 0 0 0 0 0 0 0 0 0 0 0 0 0 0 0 0 0 0 0 0 0 0
    0 0 0 0 0 0 0 0 0 0 0 0 0 0 0 0 0 0 0 0 0 0 0 0 0 0 0 0 0 0 0 0 0 4760 4760 4725 4760 4760 4760 4797 4797 4797 4797 4797 4760 4760 4725 4689 4620 4620 4587 4620 4620 4655 4655 4655 4587 4521 4521 4488 4521 4521 4587 4620 4620 4620 4620 4587 4521 4488 4488 4488 4488 4456 0 4689 4725 4689 4689 4689 4725 4725 4725 4689 4655 4521 4425 4425 4394 4394 4394 4689 4797 4760 4689 4725 4655 4587 4620 4620 4620 4587 4553 4553 4553 4521 4488 4488 4456 4425 4394 4394 4364 4364 4364 4394 4394 4394 4394 4425 4425 4425 4425 4425 4425 4425 4425 4425 4425 4425 4425 4425 4425 4425 4425 4425 4425 4425 4425 4425 4425 4425 4425 4425 4394 4394 4394 4394 4394 4394 4394 4394 4394 4394 4394 4394 4394 4394 4394 4394 4394 4394 4394 4394 4394 4394 4394 4394 4394 4394 4394 4394 4425 4425 4394 4394 4394 4364 4364 4364 4394 4394 4394 4425 4425 4425 4456 4456 4456 4456 4488 4488 4488 4488 4488 4488 4488 4488 4488 4488 4488 4488 4488 4488 4488 4488 4521 4521 4521 4521 4553 4553 4521 4521 4521 4521 4521 4521 4553 4553 4553 4587 4587 4620 4655 4655 4655 4655 4655 4655 4655 4655 4655 4655 4655 4655 4655 4655 4655 4655 4655 4655 4655 4655 4655 4655 4655 4655 4655 4689 4689 4689 4689 4689 4689 4689 4689 4689 4689 4689 4689 4689 4689 4689 4725 4725 4725 4725 4725 4725 4725 4725 4725 4725 4725 4725 4725 4725 4725 4725 4760 4760 4760 4760 4760 4760 4760 4760 4760 4760 4760 4760 4760 4725 4725 4725 4725 4725 4725 4760 4760 4760 4760 4760 4760 4797 4797 4797 4797 4797 4797 4797 4797 4797 4797 4797 4797 4797 4797 4797 4797 4797 4797 4797 0 0 0 0 0 0 5713 5713 5713 5713 5713 5765 5765 5765 5765 5765 5765 5765 5765 5765 5765 5765 5765 5765 5765 5765 5765 5765 5765 5765 5765 5818 5818 5818 5818 5818 5818 5818 5818 5818 5818 5818 5818 5873 5873 5873 5873 5873 5873 5873 5873 5873 5873 5873 5873 5873 0 0 0 0 0 0 0 0 5928 5928 5928 5928 5928 5873 5873 5873 5873 5873 5873 5873 0 0 0 0 0 0 0 0 0 0 0 0 0 0 0 0 0 0 0 0 0 0 0 0 0 0 0 0 0 0 0 0 0 0 0 0 0 0 0 0 0 0 0 0 0 0 0 0 0 0 0 0 0 0 0 0 0 0 0 0 0 0 0 0 0 0 0 0 0 0 0 0 0 0 0 0 0 0 0 0 0 0 0 0 0 0 0 0 0 0 0 0 0 0 0 0 0 0 0 0 0 0 0 0 0 0 0 0 0 0 0 0
    0 0 0 0 0 0 0 0 0 0 0 0 0 0 0 0 0 0 0 0 0 0 0 0 0 0 0 0 0 0 0 0 0 4760 4725 4725 4725 4725 4725 4760 4797 4797 4797 4797 4760 4760 4689 4620 4587 4553 4553 4553 4587 4587 4620 4587 4488 4456 4456 4425 4425 4425 4456 4521 4521 4521 4521 4521 4488 4456 4456 4456 4488 4456 0 4488 4587 4553 4553 4587 4620 4587 4587 4587 4553 4488 4425 4425 4394 4394 4394 4587 4655 4620 4620 4620 4553 4521 4521 4521 4521 4488 4488 4488 4488 4456 4456 4425 4425 4394 4394 4364 4364 4364 4364 4364 4394 4394 4394 4425 4425 4425 4425 4425 4425 4425 4425 4425 4425 4425 4425 4425 4425 4425 4425 4425 4425 4425 4425 4425 4425 4425 4425 4425 4425 4425 4394 4394 4394 4394 4394 4394 4394 4394 4394 4394 4394 4394 4394 4394 4394 4394 4394 4394 4394 4394 4394 4394 4394 4394 4394 4394 4394 4394 4394 4394 4394 4364 4394 4394 4394 4394 4425 4425 4425 4425 4456 4456 4456 4456 4456 4488 4488 4488 4488 4488 4488 4488 4488 4456 4456 4456 4456 4488 4488 4488 4488 4521 4521 4521 4521 4521 4521 4521 4521 4521 4521 4521 4553 4553 4553 4587 4587 4620 4655 4655 4655 4655 4655 4655 4655 4655 4655 4655 4655 4655 4655 4655 4655 4655 4655 4655 4655 4655 4655 4655 4655 4655 4655 4689 4689 4689 4689 4689 4689 4689 4689 4689 4689 4689 4689 4689 4689 4689 4689 4725 4725 4725 4725 4725 4725 4725 4725 4725 4725 4725 4725 4725 4725 4760 4760 4760 4760 4760 4760 4760 4760 4760 4760 4760 4760 4760 4760 4725 4725 4725 4725 4760 4760 4760 4760 4760 4760 4760 4797 4797 4797 4797 4797 4797 4797 4797 4797 4797 4797 4797 4797 4797 4797 4797 4797 4797 4797 4797 0 0 0 0 0 0 5713 5713 5713 5713 5713 5765 5765 5765 5765 5765 5765 5765 5765 5765 5765 5765 5765 5765 5765 5765 5765 5765 5765 5765 5765 5765 5818 5818 5818 5818 5818 5818 5818 5818 5818 5818 5818 5873 5873 5873 5873 5873 5873 0 0 0 0 0 0 0 0 0 0 0 0 0 0 0 0 5873 5873 5873 5873 5873 5873 5873 0 0 0 0 0 0 0 0 0 0 0 0 0 0 0 0 0 0 0 0 0 0 0 0 0 0 0 0 0 0 0 0 0 0 0 0 0 0 0 0 0 0 0 0 0 0 0 0 0 0 0 0 0 0 0 0 0 0 0 0 0 0 0 0 0 0 0 0 0 0 0 0 0 0 0 0 0 0 0 0 0 0 0 0 0 0 0 0 0 0 0 0 0 0 0 0 0 0 0 0 0 0 0 0 0 0 0 0 0 0 0 0 0 0 0 0
    0 0 0 0 0 0 0 0 0 0 0 0 0 0 0 0 0 0 0 0 0 0 0 0 0 0 0 0 0 0 0 0 0 0 4689 4689 4689 4689 4689 4725 4760 4797 4797 4797 4760 4725 4620 4553 4521 4521 4521 4521 4553 4553 4587 4521 4456 4456 4456 4425 4425 4425 4456 4456 4456 4456 4456 4456 4456 4456 4456 4456 4456 4456 0 4488 4488 4488 4488 4488 4521 4521 4521 4488 4488 4456 4425 4425 4394 4394 4394 4488 4553 4553 4521 4553 4521 4456 4456 4456 4425 4425 4425 4425 4425 4425 4425 4394 4394 4394 4364 4364 4364 4364 4364 4364 4394 4394 4394 4425 4425 4425 4425 4425 4425 4425 4425 4425 4425 4425 4425 4425 4425 4425 4425 4425 4425 4425 4425 4425 4425 4425 4425 4425 4425 4425 4425 4394 4425 4425 4425 4425 4425 4425 4425 4425 4425 4425 4394 4394 4394 4394 4394 4394 4394 4394 4394 4394 4394 4394 4425 4425 4425 4394 4394 4394 4394 4394 4394 4394 4394 4425 4425 4425 4425 4425 4456 4456 4456 4456 4456 4456 4456 4488 4488 4488 4488 4456 4456 4456 4456 4456 4456 4456 4488 4488 4488 4521 4521 4521 4521 4521 4521 4521 4521 4521 4521 4521 4553 4553 4553 4587 4587 4620 4620 4655 4655 4655 4655 4655 4655 4655 4655 4655 4655 4655 4655 4655 4655 4655 4655 4655 4655 4655 4655 4655 4655 4655 4655 4689 4689 4689 4689 4689 4689 4689 4689 4689 4689 4689 4689 4689 4689 4689 4689 4689 4689 4725 4725 4725 4725 4725 4725 4725 4725 4725 4725 4725 4760 4760 4760 4760 4760 4760 4760 4760 4760 4760 4760 4760 4760 4760 4760 4725 4725 4725 4725 4760 4760 4760 4760 4760 4760 4797 4797 4797 4797 4797 4797 4797 4797 4797 4797 4797 4797 4797 4797 4797 4797 4797 4797 4797 4797 4797 0 0 0 0 0 0 5713 5713 5713 5713 5713 5765 5765 5765 5765 5765 5765 5765 5765 5765 5765 5765 5765 5765 5765 5765 5765 5765 5765 5765 5765 5765 5765 5818 5818 5818 5818 5818 5818 5818 0 0 0 0 0 0 0 0 0 0 0 0 0 0 0 0 0 0 0 0 0 0 0 0 0 0 0 0 0 0 0 0 0 0 0 0 0 0 0 0 0 0 0 0 0 0 0 0 0 0 0 0 0 0 0 0 0 0 0 0 0 0 0 0 0 0 0 0 0 0 0 0 0 0 0 0 0 0 0 0 0 0 0 0 0 0 0 0 0 0 0 0 0 0 0 0 0 0 0 0 0 0 0 0 0 0 0 0 0 0 0 0 0 0 0 0 0 0 0 0 0 0 0 0 0 0 0 0 0 0 0 0 0 0 0 0 0 0 0 0 0 0 0 0 0 0 0 0
    0 0 0 0 0 0 0 0 0 0 0 0 0 0 0 0 0 0 0 0 0 0 0 0 0 0 0 0 0 0 0 0 0 0 4689 4689 4689 4689 4689 4689 4725 4797 4797 4797 4797 4553 4488 4488 4488 4488 4488 4488 4521 4587 4620 4553 4488 4488 4456 4456 4425 4425 4425 4425 4425 4425 4425 4425 4425 4425 4425 4456 4456 4456 0 4488 4488 4488 4488 4488 4488 4456 4456 4425 4425 4425 4425 4425 4394 4394 4394 4425 4456 4456 4456 4456 4456 4425 4425 4425 4425 4394 4425 4425 4425 4425 4425 4394 4394 4394 4364 4364 4364 4364 4364 4394 4394 4394 4394 4425 4425 4425 4425 4456 4456 4456 4456 4456 4456 4425 4425 4425 4425 4425 4425 4456 4456 4456 4425 4425 4425 4425 4425 4425 4425 4425 4425 4425 4425 4425 4425 4425 4425 4425 4425 4425 4425 4425 4425 4425 4394 4394 4394 4394 4394 4394 4394 4425 4425 4425 4425 4425 4425 4394 4394 4394 4394 4394 4394 4394 4425 4425 4425 4425 4425 4425 4425 4456 4456 4456 4456 4456 4456 4456 4456 4456 4456 4456 4456 4456 4456 4456 4456 4456 4456 4488 4488 4521 4521 4521 4521 4521 4521 4521 4521 4521 4521 4521 4553 4553 4553 4587 4587 4620 4620 4655 4655 4655 4655 4655 4655 4655 4655 4655 4655 4655 4655 4655 4655 4655 4655 4655 4655 4655 4655 4655 4655 4655 4655 4689 4689 4689 4689 4689 4689 4689 4689 4689 4689 4689 4689 4689 4689 4689 4689 4689 4689 4725 4725 4725 4725 4725 4760 4760 4760 4760 4760 4760 4760 4760 4760 4760 4760 4760 4760 4760 4760 4760 4760 4760 4760 4760 4760 4725 4725 4725 4725 4760 4760 4760 4760 4760 4760 4797 4797 4797 4797 4797 4797 4797 4797 4797 4797 4797 4797 4797 4797 4797 4797 4797 4797 4797 4797 4797 0 0 0 0 0 0 5713 5713 5713 5713 5713 5765 5765 5765 5765 5765 5765 5765 5765 5765 5765 5765 5765 5765 5765 5765 5765 5765 5765 5765 5765 5765 5765 5818 5818 5818 5818 5818 5818 5818 0 0 0 0 0 0 0 0 0 0 0 0 0 0 0 0 0 0 0 0 0 0 0 0 0 0 0 0 0 0 0 0 0 0 0 0 0 0 0 0 0 0 0 0 0 0 0 0 0 0 0 0 0 0 0 0 0 0 0 0 0 0 0 0 0 0 0 0 0 0 0 0 0 0 0 0 0 0 0 0 0 0 0 0 0 0 0 0 0 0 0 0 0 0 0 0 0 0 0 0 0 0 0 0 0 0 0 0 0 0 0 0 0 0 0 0 0 0 0 0 0 0 0 0 0 0 0 0 0 0 0 0 0 0 0 0 0 0 0 0 0 0 0 0 0 0 0 0
    0 0 0 0 0 0 0 0 0 0 0 0 0 0 0 0 0 0 0 0 0 0 0 0 0 0 0 0 0 0 0 0 0 0 0 4655 4655 4655 4655 4655 4655 0 0 0 0 4425 4521 4521 4521 4521 4553 4587 4620 4725 4797 4689 4620 4587 4521 4488 4488 4488 4488 4488 4488 4456 4425 4425 4425 4456 4488 4488 4521 4620 4948 4488 4488 4521 4488 4488 4488 4456 4456 4488 4488 4488 4488 4456 4456 4425 4425 4425 4425 4425 4425 4425 4425 4394 4394 4394 4394 4394 4425 4425 4425 4425 4425 4425 4394 4394 4394 4364 4364 4394 4394 4394 4394 4425 4425 4425 4425 4425 4425 4456 4456 4456 4456 4456 4456 4456 4456 4425 4425 4425 4456 4456 4456 4456 4456 4456 4456 4425 4425 4425 4425 4425 4425 4425 4425 4425 4425 4425 4425 4456 4456 4456 4425 4425 4425 4425 4425 4425 4425 4425 4425 4425 4425 4425 4425 4425 4425 4425 4425 4425 4394 4394 4394 4394 4394 4425 4425 4425 4425 4425 4425 4425 4425 4425 4456 4456 4456 4456 4456 4456 4456 4456 4456 4456 4456 4456 4456 4456 4456 4456 4456 4488 4488 4521 4521 4521 4521 4521 4521 4521 4521 4521 4521 4521 4553 4553 4553 4587 4587 4620 4620 4655 4655 4655 4655 4655 4620 4655 4655 4655 4655 4655 4655 4655 4655 4655 4655 4655 4655 4655 4655 4655 4655 4655 4655 4655 4689 4689 4689 4689 4689 4689 4689 4689 4689 4689 4689 4689 4689 4689 4689 4689 4689 4725 4725 4725 4725 4760 4760 4760 4760 4760 4760 4760 4760 4760 4760 4760 4760 4760 4760 4760 4760 4760 4760 4760 4760 4760 4760 4725 4725 4725 4725 4760 4760 4760 4760 4760 4760 4797 4797 4797 4797 4797 4797 4797 4797 4797 4797 4797 4797 4797 4797 4797 4797 4797 4797 4797 4797 4797 0 0 0 0 0 0 0 5713 5713 5713 5713 5765 5765 5765 5765 5765 5765 5765 5765 5765 5765 5765 5765 5765 5765 5765 5713 5765 5765 5765 5765 5765 5765 5818 5818 5818 5818 5818 5818 5818 0 0 0 0 0 0 0 0 0 0 0 0 0 0 0 0 0 0 0 0 0 0 0 0 0 0 0 0 0 0 0 0 0 0 0 0 0 0 0 0 0 0 0 0 0 0 0 0 0 0 0 0 0 0 0 0 0 0 0 0 0 0 0 0 0 0 0 0 0 0 0 0 0 0 0 0 0 0 0 0 0 0 0 0 0 0 0 0 0 0 65535 65535 65535 65535 65535 65535 65535 62843 62843 62843 57130 57130 0 0 0 0 0 0 0 0 0 0 0 0 0 0 0 0 0 0 0 0 0 0 0 0 0 0 0 0 0 0 0 0 0 0 0 0 0 0 0 0 0 0 0 0 0 0
    0 0 0 0 0 0 0 0 0 0 0 0 0 0 0 0 0 0 0 0 0 0 0 0 0 0 0 0 0 0 0 0 0 0 0 4655 4655 4655 4655 4655 4655 0 0 0 0 4655 4620 4620 4620 4620 4655 4689 4725 4797 4871 4760 4725 4655 4620 4587 4587 4553 4587 4587 4587 4553 4521 4488 4488 4521 4553 4620 4689 4797 4948 4948 4797 4587 4488 4488 4456 4456 4456 4488 4521 4553 4553 4521 4521 4488 4456 4425 4425 4425 4425 4456 4456 4456 4456 4456 4456 4456 4488 4488 4488 4456 4456 4425 4425 4394 4394 4394 4394 4425 4425 4425 4425 4425 4456 4456 4456 4456 4456 4456 4456 4456 4456 4456 4456 4456 4456 4456 4425 4425 4456 4456 4456 4456 4456 4456 4456 4456 4456 4456 4456 4456 4425 4425 4425 4425 4425 4456 4456 4456 4456 4456 4456 4456 4425 4425 4425 4425 4425 4425 4425 4425 4425 4425 4456 4456 4456 4425 4425 4425 4425 4394 4394 4425 4425 4425 4425 4425 4425 4425 4425 4425 4425 4425 4425 4456 4456 4456 4456 4456 4456 4456 4456 4456 4456 4456 4456 4456 4456 4456 4488 4488 4521 4521 4521 4521 4521 4521 4521 4521 4521 4521 4521 4521 4553 4553 4553 4587 4587 4620 4620 4620 4620 4620 4620 4620 4620 4620 4620 4655 4655 4655 4655 4655 4655 4655 4655 4655 4655 4655 4655 4655 4655 4655 4655 4689 4689 4689 4689 4689 4689 4689 4689 4689 4689 4689 4689 4689 4689 4689 4689 4689 4725 4725 4725 4725 4725 4760 4760 4760 4760 4760 4760 4760 4760 4760 4760 4760 4760 4760 4760 4760 4760 4760 4760 4760 4760 4760 4760 4725 4725 4725 4725 4760 4760 4760 4760 4760 4760 4760 4797 4797 4797 4797 4797 4797 4797 4797 4797 4797 4797 4797 4797 4797 4797 4797 4797 4797 4797 4797 0 0 0 0 0 0 0 5713 5713 5713 5713 5713 5765 5765 5765 5765 5765 5765 5765 5765 5765 5765 5765 5765 5713 5713 5713 5713 5765 5765 5765 5765 5818 5818 5818 5818 5818 5818 5818 5818 0 0 0 0 0 0 0 0 0 0 0 0 0 0 0 0 0 0 0 0 0 0 0 0 0 0 0 0 0 0 0 0 0 0 0 0 0 0 0 0 0 0 0 0 0 0 0 0 0 0 0 0 0 0 0 0 0 0 0 0 0 0 0 0 0 0 0 0 0 0 0 0 0 0 0 0 0 0 0 0 0 0 0 0 0 0 0 0 0 20947 28565 39276 44887 48340 57130 65535 62843 62843 62843 62843 57130 57130 57130 0 0 0 0 62843 36966 36966 36966 36966 26184 0 0 0 0 0 0 0 0 0 0 0 0 0 0 0 0 0 0 0 0 0 0 0 0 0 0 0 0 0 0 0 0 0 0 0
    0 0 0 0 0 0 0 0 0 0 0 0 0 0 0 0 0 0 0 0 0 0 0 0 0 0 0 0 0 0 0 0 0 0 0 4620 4620 4620 4620 4620 4620 0 0 0 0 4655 4725 4725 4725 4725 4760 4760 4834 4871 4871 4834 4797 4760 4725 4689 4725 4725 4725 4689 4689 4655 4620 4587 4587 4620 4655 4725 4797 4871 4948 4948 4948 4760 4620 4521 4456 4456 4488 4521 4553 4587 4620 4587 4587 4553 4521 4488 4456 4425 4425 4488 4521 4521 4521 4553 4521 4521 4553 4553 4553 4521 4488 4456 4425 4394 4394 4394 4425 4425 4456 4456 4456 4456 4456 4488 4488 4488 4521 4488 4488 4488 4488 4456 4456 4456 4456 4425 4425 4425 4425 4456 4456 4456 4456 4456 4456 4456 4456 4456 4456 4456 4456 4456 4456 4456 4456 4456 4456 4456 4456 4456 4456 4456 4425 4425 4425 4425 4456 4456 4456 4425 4456 4456 4456 4456 4456 4456 4425 4425 4425 4425 4425 4425 4425 4425 4425 4425 4425 4425 4425 4425 4425 4425 4425 4425 4456 4456 4456 4456 4456 4456 4456 4456 4456 4456 4456 4456 4456 4456 4488 4488 4521 4521 4521 4521 4521 4521 4521 4521 4521 4521 4521 4553 4553 4553 4553 4587 4587 4620 4620 4620 4620 4620 4620 4620 4620 4620 4620 4655 4655 4655 4655 4655 4655 4655 4655 4655 4655 4655 4655 4655 4655 4655 4655 4689 4689 4689 4689 4689 4689 4689 4725 4725 4725 4725 4725 4725 4725 4689 4689 4725 4725 4725 4725 4725 4760 4760 4760 4760 4797 4797 4797 4760 4760 4760 4760 4760 4760 4760 4760 4760 4760 4760 4760 4760 4760 4760 4725 4725 4725 4725 4725 4725 4760 4760 4760 4760 4760 4760 4760 4797 4797 4797 4797 4797 4797 4797 4797 4797 4797 4797 4797 4797 4797 4797 4797 4797 4797 4797 0 0 0 0 0 0 0 0 5713 5713 5713 5713 5713 5713 5765 5765 5765 5765 5765 5765 5765 5765 5713 5713 5713 5713 5713 5713 5765 5765 5765 5765 5818 5818 5818 5818 5818 5818 5818 5818 0 0 0 0 0 0 0 0 0 0 0 0 0 0 0 0 0 0 0 0 0 0 0 0 0 0 0 0 0 0 0 0 0 0 0 0 0 0 0 0 0 0 0 0 0 0 0 0 0 0 0 0 0 0 0 0 0 0 0 0 0 0 0 0 0 0 0 0 0 0 0 0 0 0 0 0 0 0 0 0 0 0 0 0 0 0 0 0 20271 20947 24170 31421 34912 41895 52369 62843 62843 62843 62843 62843 57130 57130 57130 0 0 0 0 36966 31421 29925 29925 29925 26184 26184 26184 0 0 0 0 0 0 0 0 0 0 0 0 0 0 0 0 0 0 0 0 0 0 0 0 0 0 0 0 0 0 0 0 0
    0 0 0 0 0 0 0 0 0 0 0 0 0 0 0 0 0 0 0 0 0 0 0 0 0 0 0 0 0 0 0 0 0 0 0 0 0 0 0 0 0 0 0 0 5027 4834 4834 4834 4834 4834 4834 4871 4871 4909 4909 4871 4871 4834 4834 4834 4871 4871 4871 4834 4834 4760 4760 4689 4689 4725 4760 4797 4871 4948 4948 4948 4948 4871 4725 4587 4488 4456 4521 4553 4620 4655 4689 4655 4655 4587 4553 4521 4521 4456 4456 4553 4587 4587 4587 4620 4587 4587 4587 4587 4587 4553 4521 4456 4425 4394 4394 4425 4425 4456 4456 4488 4456 4456 4488 4521 4553 4553 4553 4521 4488 4488 4488 4456 4456 4456 4456 4425 4425 4425 4425 4456 4456 4456 4488 4488 4488 4488 4488 4488 4488 4456 4456 4456 4456 4456 4456 4456 4456 4456 4456 4456 4456 4456 4456 4456 4456 4456 4456 4456 4456 4456 4456 4456 4456 4456 4456 4456 4425 4425 4425 4425 4425 4425 4425 4425 4425 4425 4425 4425 4425 4425 4425 4425 4425 4425 4456 4456 4456 4456 4456 4456 4456 4456 4456 4456 4456 4456 4456 4488 4488 4521 4521 4521 4521 4521 4521 4521 4521 4521 4521 4521 4521 4521 4553 4553 4587 4587 4620 4620 4620 4655 4655 4620 4620 4620 4620 4620 4620 4655 4655 4655 4655 4655 4655 4655 4655 4655 4655 4655 4655 4655 4655 4655 4655 4689 4689 4689 4689 4689 4725 4725 4725 4725 4725 4725 4725 4725 4725 4689 4725 4725 4725 4725 4725 4760 4760 4760 4797 4797 4797 4797 4797 4797 4797 4797 4760 4760 4760 4760 4760 4760 4760 4760 4760 4760 4760 4760 4725 4725 4760 4760 4760 4760 4760 4760 4760 4760 4760 4760 4760 4760 4760 4760 4797 4797 4797 4797 4797 4797 4797 4797 4797 4797 4797 4797 4797 4797 4797 4797 0 0 0 0 0 0 0 0 0 0 0 0 0 0 5765 5765 5765 5765 5765 5765 5765 5713 5713 5713 5713 5713 5713 5765 5765 5765 5765 5765 5818 5818 5818 5818 5818 5818 5818 5818 0 0 0 0 0 0 0 0 0 0 0 0 0 0 0 0 0 0 0 0 0 0 0 0 0 0 0 0 0 0 0 0 0 0 0 0 0 0 0 0 0 0 0 0 0 0 0 0 0 0 0 0 0 0 0 0 0 0 0 0 0 0 0 0 0 0 0 0 0 0 0 0 0 0 0 0 0 0 0 0 0 0 0 0 0 0 0 0 20271 20947 22443 28565 33075 39276 48340 62843 62843 62843 62843 62843 57130 57130 57130 0 0 0 0 33075 29925 28565 28565 28565 26184 26184 26184 0 0 0 0 0 0 0 0 0 0 0 0 0 0 0 0 0 0 0 0 0 0 62843 62843 62843 62843 62843 62843 62843 62843 0 0 0
    0 0 0 0 0 0 0 0 0 0 0 0 0 0 0 0 0 0 0 0 0 0 0 0 0 0 0 0 0 0 0 0 0 0 0 0 0 0 0 0 0 0 5067 5067 5067 5027 5027 4987 4987 4987 4987 4948 4948 4948 4948 4948 4948 4948 4948 4948 4987 4987 5027 4987 4948 4909 4871 4834 4797 4834 4871 4909 4948 4987 4987 4987 4987 4948 4834 4689 4488 4488 4587 4760 4797 4797 4797 4760 4689 4655 4655 4587 4587 4521 4553 4725 4725 4689 4689 4689 4655 4655 4655 4655 4655 4587 4553 4488 4456 4425 4394 4425 4456 4488 4488 4488 4488 4488 4553 4587 4587 4620 4620 4587 4553 4488 4521 4488 4456 4456 4456 4425 4425 4425 4425 4425 4425 4456 4456 4521 4488 4488 4488 4488 4488 4488 4488 4488 4456 4456 4456 4456 4456 4456 4456 4456 4456 4456 4456 4456 4456 4456 4488 4456 4456 4456 4456 4456 4456 4456 4456 4456 4425 4425 4425 4425 4425 4425 4425 4425 4425 4425 4425 4425 4425 4425 4425 4425 4425 4425 4456 4456 4456 4456 4456 4456 4456 4456 4456 4456 4456 4456 4488 4488 4521 4521 4521 4521 4521 4521 4521 4521 4521 4521 4521 4521 4521 4521 4553 4553 4587 4620 4620 4620 4655 4655 4655 4655 4655 4620 4620 4620 4655 4655 4655 4655 4655 4655 4655 4655 4655 4655 4655 4655 4655 4655 4655 4655 4655 4689 4689 4689 4689 4725 4725 4725 4725 4725 4725 4725 4725 4725 4725 4689 4725 4725 4725 4725 4725 4760 4760 4760 4797 4797 4797 4797 4797 4797 4797 4760 4760 4760 4760 4760 4760 4760 4760 4760 4760 4760 4760 4760 4725 4725 4760 4760 4760 4760 4760 4760 4760 4760 4760 4760 4760 4760 4760 4760 4760 4760 4797 4797 4797 4797 4797 4797 4797 4797 4797 4797 4797 4797 4797 4797 0 0 0 0 0 0 0 0 0 0 0 0 0 0 5765 5765 5765 5765 5765 5765 5765 5713 5713 5713 5713 5713 5765 5765 5765 5765 5765 5765 5818 5818 5818 5818 5818 5818 5818 5818 0 0 0 0 0 0 0 0 0 0 0 0 0 0 0 0 0 0 0 0 0 0 0 0 0 0 0 0 0 0 0 0 0 0 0 0 0 0 0 0 0 0 0 0 0 0 0 0 0 0 0 0 0 0 0 0 0 0 0 0 0 0 0 0 0 0 0 0 0 0 0 0 0 0 0 0 0 0 0 0 0 0 0 0 0 0 0 0 20271 20947 22443 27323 31421 39276 48340 62843 62843 62843 62843 62843 57130 57130 57130 0 0 0 27323 29925 28565 28565 27323 27323 26184 26184 26184 26184 26184 0 0 0 0 0 0 0 0 0 0 0 0 0 0 0 0 0 0 0 0 62843 62843 62843 62843 62843 62843 52369 48340 36966 36966 26184
    0 0 0 0 0 0 0 0 0 0 0 0 0 0 0 0 0 0 0 0 0 0 0 0 0 0 0 0 0 0 0 0 0 0 0 0 0 0 0 0 0 4909 5027 5027 5067 5027 5027 5027 5027 5027 4987 4987 4987 4987 4987 4948 4948 4948 4987 4987 4987 5027 5027 5027 5027 4987 4987 4987 4948 4948 4987 4987 4987 4987 4987 4987 4987 4987 5027 5027 5109 5151 5151 5151 4948 4834 4797 4760 4725 4689 4689 4689 4689 0 0 4760 4760 4725 4725 4725 4725 4725 4725 4725 4725 4689 4620 4553 4456 4425 4394 4456 4488 4521 4553 4521 4456 4488 4553 4587 4620 4689 4689 4655 4620 4553 4553 4488 4456 4456 4425 4425 4425 4425 4425 4425 4425 4425 4456 4521 4587 4553 4521 4521 4521 4488 4488 4488 4488 4456 4456 4456 4456 4456 4456 4456 4456 4456 4456 4456 4488 4488 4488 4488 4488 4456 4456 4456 4456 4456 4456 4456 4425 4425 4425 4425 4425 4425 4425 4425 4425 4425 4425 4425 4425 4425 4425 4425 4425 4425 4456 4456 4456 4456 4456 4456 4456 4456 4425 4456 4456 4456 4488 4521 4521 4521 4521 4521 4521 4521 4521 4521 4521 4521 4521 4521 4521 4553 4553 4587 4620 4620 4655 4655 4655 4655 4655 4655 4655 4655 4620 4655 4655 4655 4655 4655 4655 4655 4655 4655 4655 4655 4655 4655 4655 4655 4655 4655 4655 4689 4689 4689 4689 4725 4725 4725 4725 4725 4725 4725 4725 4725 4725 4689 4725 4725 4725 4725 4725 4760 4760 4760 4797 4797 4797 4797 4797 4797 4760 4760 4760 4760 4760 4760 4760 4760 4760 4760 4760 4760 4760 4725 4725 4725 4725 4760 4760 4760 4760 4760 4760 4760 4760 4760 4760 4760 4760 4760 4760 4760 4760 4797 4797 4797 4797 4797 4797 4797 4797 4797 4797 4797 4797 0 0 0 0 0 0 0 0 0 0 0 0 0 0 0 5765 5765 5765 5765 5765 5713 5713 5713 5713 5713 5713 5713 5765 5765 5765 5765 5765 5765 5818 5818 5818 5818 5818 5818 5818 0 0 0 0 0 0 0 0 0 0 0 0 0 0 0 0 0 0 0 0 0 0 0 0 0 0 0 0 0 0 0 0 0 0 0 0 0 0 0 0 0 0 0 0 0 0 0 0 0 0 0 0 0 0 0 0 0 0 0 0 0 0 0 0 0 0 0 0 0 0 0 0 0 0 0 0 0 0 0 0 0 0 0 0 0 0 0 0 0 20271 20947 21670 26184 29925 34912 44887 62843 62843 62843 57130 52369 48340 48340 39276 27323 34912 34912 31421 31421 28565 27323 27323 27323 26184 26184 26184 26184 26184 0 0 0 0 0 0 0 65535 65535 65535 65535 65535 65535 0 0 0 0 0 0 0 62843 62843 62843 62843 62843 57130 48340 39276 33075 29925 26184
    0 0 0 0 0 0 0 0 0 0 0 0 0 0 0 0 0 0 0 0 0 0 0 0 0 0 0 0 0 0 0 0 0 0 0 0 0 0 0 0 0 4909 5027 5067 5067 5067 5067 5067 5067 5067 5027 5027 5027 5027 4987 4987 4987 4987 4987 4987 5027 5027 5027 5027 5027 5027 4987 4987 4987 4987 4987 5027 5027 5027 5027 5027 5027 5067 5067 5109 5109 5151 5151 5151 4948 4834 4760 4760 4689 4689 4689 4689 4689 0 0 4834 4760 4760 4760 4760 4725 4725 4725 4725 4725 4725 4725 4689 0 0 0 0 0 0 0 4364 4364 4394 4521 4553 4587 4655 4655 4620 4521 4425 4425 4334 4394 4425 4425 4425 4425 4394 4394 4394 4394 4394 4425 4456 0 0 4488 4488 4488 4488 4488 4488 4488 4456 4456 4456 4456 4456 4456 4456 4456 4456 4456 4488 4488 4488 4488 4488 4488 4456 4456 4456 4456 4456 4456 4425 4425 4425 4425 4425 4425 4425 4425 4425 4425 4425 4425 4425 4425 4425 4425 4425 4425 4425 4425 4456 4456 4456 4456 4456 4456 4425 4425 4456 4456 4488 4488 4521 4521 4521 4521 4521 4521 4521 4521 4521 4521 4521 4521 4521 4521 4553 4587 4620 4655 4655 4655 4655 4655 4655 4655 4655 4655 4655 4655 4655 4655 4655 4655 4655 4655 4655 4655 4655 4655 4655 4655 4655 4655 4655 4655 4655 4655 4689 4689 4689 4689 4689 4725 4725 4725 4725 4725 4725 4725 4725 4725 4689 4725 4725 4725 4725 4725 4760 4760 4760 4760 4797 4797 4797 4760 4760 4760 4760 4760 4760 4760 4760 4760 4760 4760 4760 4760 4760 4725 4725 4725 4725 4725 4725 4725 4725 4760 4760 4760 4760 4760 4760 4760 4760 4760 4760 4760 4760 4760 4760 4797 4797 4797 4797 4797 4797 4797 4797 4797 4797 4797 0 0 0 0 0 0 0 0 0 0 0 0 0 0 0 5765 5765 5765 5765 5765 5713 5713 5713 5713 5713 5713 5713 5765 5765 5765 5765 5765 5765 5818 5818 5818 5818 5818 5818 0 0 0 0 0 0 0 0 0 0 0 0 0 0 0 0 0 0 0 0 0 0 0 0 0 0 0 0 0 0 0 0 0 0 0 0 0 0 0 0 0 0 0 0 0 0 0 0 0 0 0 0 0 0 0 0 0 0 0 0 0 0 0 0 0 0 0 0 0 0 0 0 0 0 0 0 0 0 0 0 0 0 0 0 0 0 0 0 0 0 20271 20271 21670 26184 28565 34912 48340 57130 57130 57130 52369 48340 41895 36966 33075 29925 33075 31421 31421 29925 27323 27323 27323 27323 27323 26184 26184 26184 26184 26184 0 0 0 0 0 65535 65535 65535 65535 65535 65535 65535 0 0 0 0 0 0 0 62843 62843 62843 62843 62843 52369 41895 34912 31421 28565 26184
    0 0 0 0 0 0 0 0 0 0 0 0 0 0 0 0 0 0 0 0 0 0 0 0 0 0 0 0 0 0 0 0 0 0 0 0 0 0 0 4987 4987 4948 5027 5067 5067 5067 5067 5067 5067 5067 5067 5067 5067 5067 5027 5027 5027 5027 5027 5027 5027 5027 5027 5027 5027 5027 5027 5027 5027 5027 5027 5067 5067 5067 5067 5067 5067 5109 5109 5109 5109 5151 5151 5151 4987 4871 4797 4760 4689 4689 4689 4689 4689 0 0 4871 4797 4760 4760 4760 4725 4725 4725 4689 4620 4521 4456 4394 4364 4364 4334 4334 4334 0 4364 4364 4364 4394 4456 4488 4553 4587 4587 4521 4456 4334 4334 4334 4334 4364 4394 4394 4425 4394 4394 4394 4394 4394 4394 4425 4334 0 4488 4488 4488 4488 4488 4488 4488 4456 4456 4456 4456 4456 4456 4456 4456 4456 4488 4488 4488 4488 4488 4488 4488 4488 4456 4456 4456 4456 4456 4456 4425 4425 4425 4425 4425 4425 4425 4425 4425 4425 4425 4425 4425 4425 4425 4425 4425 4425 4425 4425 4425 4425 4425 4425 4425 4425 4425 4456 4456 4488 4488 4521 4521 4521 4521 4521 4521 4521 4521 4521 4521 4521 4521 4521 4521 4553 4587 4620 4655 4655 4655 4655 4655 4655 4655 4655 4655 4655 4655 4655 4655 4655 4655 4655 4655 4655 4655 4655 4655 4655 4655 4655 4655 4655 4655 4655 4655 4655 4689 4689 4689 4689 4725 4725 4725 4725 4725 4725 4725 4725 4725 4689 4725 4725 4725 4725 4725 4725 4725 4760 4760 4760 4760 4760 4760 4760 4760 4725 4725 4760 4760 4760 4760 4760 4760 4760 4760 4725 4725 4725 4725 4725 4725 4725 4725 4725 4725 4725 4725 4760 4760 4760 4760 4760 4760 4760 4760 4760 4760 4760 4797 4797 4797 4797 4797 4797 4797 4797 4797 4797 0 0 0 5713 5713 5713 5713 5713 5713 5713 5713 5713 5713 0 0 0 5713 5713 5713 5713 5713 5713 5713 5713 5713 5713 5713 5713 5765 5765 5765 5765 5765 5765 5765 0 0 0 0 0 0 0 0 0 0 0 0 0 0 0 0 0 0 0 0 0 0 0 0 0 0 0 0 0 0 0 0 0 0 0 0 0 0 0 0 0 0 0 0 0 0 0 0 0 0 0 0 0 0 0 0 0 0 0 0 0 0 0 0 0 0 0 0 0 0 0 0 0 0 0 0 0 0 0 0 0 0 0 0 0 0 0 0 0 0 0 0 0 0 0 20271 20271 22443 27323 29925 39276 48340 57130 57130 52369 44887 39276 36966 33075 31421 31421 34912 34912 33075 31421 28565 27323 27323 27323 27323 27323 26184 26184 26184 26184 0 0 0 0 65535 65535 65535 65535 65535 65535 65535 65535 0 0 0 0 0 0 0 62843 62843 62843 62843 57130 48340 39276 33075 29925 28565 27323
    0 0 0 0 0 0 0 0 0 0 0 0 0 0 0 0 0 0 0 0 0 0 0 0 0 0 0 0 0 0 0 0 0 0 0 0 5027 5027 5027 5027 5027 4987 5027 5027 5067 5067 5067 5067 5067 5109 5109 5109 5109 5067 5067 5067 5027 5027 5027 5027 5027 5027 5027 5027 5027 5027 5027 5027 5027 5027 5067 5109 5109 5109 5109 5109 5109 5109 5109 5109 5109 5109 5109 5109 5027 4948 4834 4797 4689 4689 4689 4689 0 0 0 4871 4797 4760 4760 4760 4725 4725 4725 4587 4488 4425 4394 4394 4364 4364 4334 4334 4334 4334 4364 4364 4364 4364 4425 4425 4456 4488 4488 4425 4394 4334 4334 4334 4334 4334 4364 4364 4394 4394 4394 4394 4364 4364 4364 4394 4425 4456 4521 4553 4488 4488 4488 4488 4488 4456 4456 4456 4425 4456 4456 4456 4456 4456 4488 4488 4488 4521 4521 4521 4488 4488 4488 4456 4456 4456 4456 4456 4425 4425 4425 4425 4425 4425 4425 4425 4425 4425 4425 4425 4425 4425 4425 4425 4425 4425 4425 4425 4425 4425 4425 4425 4425 4425 4425 4456 4456 4488 4488 4521 4521 4521 4521 4521 4521 4521 4521 4521 4521 4521 4521 4521 4521 4553 4587 4620 4655 4655 4655 4655 4655 4655 4655 4655 4655 4655 4655 4655 4655 4655 4655 4655 4655 4655 4655 4655 4655 4620 4655 4655 4655 4655 4655 4655 4655 4655 4689 4689 4689 4689 4725 4725 4725 4725 4725 4725 4689 4689 4689 4689 4689 4689 4725 4725 4725 4725 4725 4725 4725 4760 4760 4760 4725 4725 4725 4725 4725 4725 4725 4725 4725 4725 4725 4725 4725 4725 4725 4725 4725 4725 4725 4725 4725 4725 4725 4725 4725 4725 4725 4725 4760 4760 4760 4760 4760 4760 4760 4760 4760 4797 4797 4797 4797 4797 4797 4797 4797 4797 0 0 5713 5713 5713 5713 5713 5713 5713 5713 5713 5713 5713 5713 0 0 0 5713 5713 5713 5713 5713 5713 5713 5713 5713 5713 5713 5765 5765 5765 5765 5765 5765 5765 0 0 0 0 0 0 0 0 0 0 0 0 0 0 0 0 0 0 0 0 0 0 0 0 0 0 0 0 0 0 0 0 0 0 0 0 0 0 0 0 0 0 0 0 0 0 0 0 0 0 0 0 0 0 0 0 0 0 0 0 0 0 0 0 0 0 0 0 0 0 0 0 0 0 0 0 0 0 0 0 0 0 0 0 0 0 0 0 0 0 0 0 0 0 0 20271 20271 23275 28565 33075 41895 52369 57130 52369 48340 41895 34912 33075 31421 29925 31421 36966 36966 34912 33075 29925 28565 28565 27323 27323 27323 26184 26184 26184 26184 0 0 0 48340 65535 65535 65535 65535 65535 65535 65535 65535 0 0 0 0 0 0 0 62843 62843 62843 62843 52369 39276 34912 31421 29925 28565 27323
    0 0 0 0 0 0 0 0 0 0 0 0 0 0 0 0 0 0 0 0 0 0 0 0 0 0 0 0 0 0 0 0 0 0 0 5027 5027 5027 5027 5027 5027 4987 4987 5027 5067 5067 5067 5067 5109 5109 5109 5109 5109 5067 5067 5067 5067 5027 5027 5027 5027 5027 5027 5027 5027 5027 5027 5067 5067 5067 5067 5109 5109 5109 5109 5109 5109 5109 5109 5109 5109 5109 5109 5109 5027 4948 4871 4797 4689 4689 4689 0 0 0 0 4948 4834 4797 4760 4760 4689 4689 4689 4425 4425 4425 4394 4394 4364 4364 4364 4334 4334 4334 4364 4364 4364 4364 4394 4394 4394 4394 4394 4364 4364 4334 4334 4334 4334 4334 4334 4364 4364 4394 4394 4364 4364 4364 4364 4364 4394 4394 4425 4488 4456 4488 4488 4488 4456 4456 4456 4456 4425 4456 4456 4456 4456 4488 4488 4488 4521 4521 4521 4521 4488 4488 4488 4488 4456 4456 4456 4456 4425 4425 4425 4425 4425 4425 4425 4425 4425 4425 4425 4425 4425 4425 4425 4425 4425 4425 4425 4425 4425 4425 4425 4425 4425 4425 4425 4425 4456 4456 4488 4488 4521 4521 4521 4521 4521 4521 4521 4521 4521 4521 4521 4521 4553 4587 4620 4655 4655 4655 4655 4655 4655 4655 4655 4655 4655 4655 4655 4655 4655 4655 4655 4655 4655 4655 4655 4655 4620 4620 4620 4655 4655 4655 4655 4655 4655 4655 4689 4689 4689 4689 4689 4689 4689 4689 4689 4689 4689 4689 4689 4689 4689 4689 4689 4725 4725 4725 4725 4725 4725 4725 4725 4725 4725 4725 4725 4725 4725 4725 4725 4725 4725 4725 4725 4725 4725 4725 4725 4725 4725 4725 4725 4725 4725 4725 4725 4725 4725 4725 4725 4725 4725 4760 4760 4760 4760 4760 4760 4760 4760 4760 4760 4797 4797 4797 4797 4797 4797 0 0 0 5713 5713 5713 5713 5713 5713 5713 5713 5713 5713 5713 5713 0 0 0 0 0 0 0 0 0 5713 5713 5713 5713 5713 5765 5765 5765 5765 5765 5765 0 0 0 0 0 0 0 0 0 0 0 0 0 0 0 0 0 0 0 0 0 0 0 0 0 0 0 0 0 0 0 0 0 0 0 0 0 0 0 0 0 0 0 0 0 0 0 0 0 0 0 0 0 0 0 0 0 0 0 0 0 0 0 0 0 0 0 0 0 0 0 0 0 0 0 0 0 0 0 0 0 0 0 0 0 0 0 0 0 0 0 0 0 0 0 0 0 20271 29925 36966 44887 48340 57130 57130 48340 41895 36966 33075 29925 29925 29925 34912 39276 41895 39276 36966 33075 31421 29925 28565 27323 27323 26184 26184 26184 26184 0 0 0 48340 65535 65535 65535 65535 65535 65535 65535 65535 34912 34912 34912 34912 27323 0 0 0 0 62843 62843 39276 33075 31421 29925 28565 27323 27323
    0 0 0 0 0 0 0 0 0 0 0 0 0 0 0 0 0 0 0 0 0 0 0 0 0 0 0 0 0 0 0 0 0 0 0 5027 5027 5027 5027 5027 5027 5027 4987 5027 5067 5067 5067 5067 5067 5109 5109 5109 5067 5067 5067 5067 5027 5027 5027 5027 5027 5027 5027 5027 5027 5027 5027 5027 5027 5067 5067 5067 5067 5109 5109 5109 5109 5109 5109 5109 5109 5109 5067 5067 4987 4909 4834 4760 4620 4620 4620 0 0 0 0 5109 4909 4834 4834 4834 4689 4689 0 4425 4425 4425 4394 4394 4364 4364 4364 4334 4334 4364 4364 4364 4364 4364 4364 4364 4364 4394 4394 4364 4364 4334 4334 4334 4334 4334 4334 4334 4364 4364 4364 4364 4364 4364 4364 4364 4364 4394 4394 4425 4394 4488 4488 4456 4456 4456 4456 4456 4425 4456 4456 4456 4456 4488 4488 4521 4521 4521 4521 4521 4521 4488 4488 4488 4488 4456 4456 4456 4456 4425 4425 4425 4425 4425 4425 4425 4425 4425 4425 4425 4425 4425 4425 4425 4425 4425 4425 4425 4425 4425 4425 4425 4425 4425 4425 4425 4456 4456 4488 4488 4488 4521 4521 4521 4521 4521 4488 4488 4488 4488 4488 4521 4553 4587 4587 4620 4655 4655 4655 4655 4655 4655 4655 4655 4655 4655 4655 4655 4655 4655 4655 4655 4655 4655 4655 4655 4620 4620 4620 4655 4655 4655 4655 4655 4655 4689 4689 4689 4689 4689 4725 4725 4725 4689 4689 4689 4689 4689 4689 4689 4689 4689 4689 4725 4725 4725 4725 4725 4725 4725 4725 4725 4725 4725 4725 4725 4725 4725 4725 4725 4725 4725 4725 4725 4725 4725 4725 4725 4725 4725 4725 4725 4725 4725 4725 4725 4725 4725 4725 4725 4725 4725 4760 4760 4760 4760 4760 4760 4760 4760 4760 4797 4797 4797 4797 4797 0 0 0 5713 5713 5713 5713 5713 5713 5713 5713 5713 5713 5713 5713 5713 0 0 0 0 0 0 0 0 0 5713 5713 5713 5713 5713 5713 5713 5713 5713 5713 0 0 0 0 0 0 0 0 0 0 0 0 0 0 0 0 0 0 0 0 0 0 0 0 0 0 0 0 0 0 0 0 0 0 0 0 0 0 0 0 0 0 0 0 0 0 0 0 0 0 0 0 0 0 0 0 0 0 0 0 0 0 0 0 0 0 0 0 0 0 0 0 0 0 0 0 0 0 0 0 0 0 0 0 0 0 0 0 0 0 0 0 0 0 0 0 0 0 0 0 0 57130 57130 57130 52369 48340 39276 34912 31421 29925 29925 31421 36966 41895 44887 44887 41895 36966 34912 33075 29925 28565 27323 26184 25137 26184 26184 0 0 0 48340 65535 65535 65535 65535 65535 65535 65535 65535 41895 36966 31421 28565 20271 0 0 0 0 0 0 27323 27323 27323 27323 27323 27323 27323
    0 0 0 0 0 0 0 0 0 0 0 0 0 0 0 0 0 0 0 0 0 0 0 0 0 0 0 0 0 0 0 0 0 0 5067 5067 5027 5027 5027 5027 5027 5027 4987 5027 5067 5067 5067 5067 5067 5067 5067 5067 5067 5067 5027 5027 5027 5027 5027 5027 5027 5027 5027 5027 5027 5027 5027 4987 4948 4909 4948 4987 5027 5109 5109 5109 5109 5109 5109 5109 5109 5067 5067 5067 4948 4871 4797 4725 4620 4620 4620 4587 0 0 0 0 0 0 0 0 0 0 0 4425 4425 4425 4394 4394 4364 4364 4364 4364 4334 4364 4364 4364 4364 4364 4364 4364 4364 4364 4364 4364 4364 4364 4364 4364 4364 4364 4334 4334 4334 4364 4364 4364 4364 4364 4334 4364 4364 4364 4394 4394 4364 4425 4456 4456 4456 4456 4456 4425 4456 4456 4456 4456 4488 4488 4488 4521 4521 4521 4521 4521 4521 4488 4488 4488 4488 4488 4456 4456 4456 4425 4425 4425 4425 4425 4425 4425 4425 4425 4425 4425 4425 4425 4425 4425 4425 4425 4425 4425 4425 4425 4425 4425 4425 4425 4425 4425 4425 4456 4456 4488 4488 4488 4521 4521 4521 4521 4488 4488 4488 4488 4521 4521 4553 4587 4587 4620 4655 4655 4655 4655 4655 4655 4655 4655 4655 4655 4655 4655 4655 4655 4655 4655 4655 4655 4655 4655 4620 4620 4620 4620 4655 4655 4655 4655 4689 4689 4689 4689 4689 4725 4725 4725 4725 4689 4689 4689 4689 4689 4689 4689 4689 4689 4725 4725 4725 4725 4725 4725 4725 4725 4725 4725 4725 4725 4689 4725 4725 4725 4725 4725 4725 4725 4725 4725 4725 4725 4725 4725 4725 4725 4725 4725 4725 4725 4725 4725 4725 4725 4725 4725 4725 4725 4725 4760 4760 4760 4760 4760 4760 4760 4760 4760 4760 4760 4760 0 0 0 0 5713 5713 5713 5713 5713 5713 5713 5713 5713 5713 5713 5713 5713 0 0 0 0 5713 5713 5713 5713 5713 5713 5713 5713 5713 5713 5713 5713 5713 5713 5713 0 0 0 0 0 0 0 0 0 0 0 0 0 0 0 0 0 0 0 0 0 0 0 0 0 0 0 0 0 0 0 0 0 0 0 0 0 0 0 0 0 0 0 0 0 0 0 0 0 0 0 0 0 0 0 0 0 0 0 0 0 0 0 0 0 0 0 0 0 0 0 0 0 0 0 0 0 0 0 0 0 0 0 0 0 0 0 0 0 0 0 0 0 0 0 0 0 0 0 0 0 57130 57130 52369 52369 44887 39276 34912 31421 29925 31421 34912 39276 48340 52369 52369 48340 44887 39276 36966 31421 28565 27323 23275 22443 23275 0 0 0 0 48340 65535 65535 65535 65535 65535 65535 65535 65535 41895 31421 27323 24170 17456 15327 34912 34912 34912 34912 34912 29925 28565 27323 27323 27323 27323 27323
    0 0 0 0 0 0 0 0 0 0 0 0 0 0 0 0 0 0 0 0 0 0 0 0 0 0 0 0 0 0 0 0 0 0 5067 5067 5067 5027 5027 5027 5027 5027 4987 4987 5027 5067 5067 5067 5067 5067 5067 5067 5067 5027 5027 5027 5027 5027 5027 5027 5027 5027 5027 5027 5027 5027 5027 4948 4834 4797 4871 4909 4987 5067 5109 5109 5109 5109 5109 5109 5109 5067 5027 5027 4948 4871 4760 4689 4620 4620 4587 4587 4553 4553 0 0 0 0 0 0 0 0 0 4425 4425 4394 4394 4394 4364 4364 4364 4364 4334 4364 4364 4364 4364 4364 4364 4364 4364 4364 4364 4334 4334 4364 4364 4364 4364 4364 4364 4334 4334 4334 4334 4334 4334 4334 4334 4364 4364 4364 4394 4394 4394 4425 4456 4456 4456 4456 4456 4456 4456 4456 4456 4456 4488 4488 4488 4521 4521 4521 4521 4521 4521 4488 4488 4488 4488 4488 4456 4456 4456 4456 4425 4425 4425 4425 4425 4425 4425 4425 4425 4425 4425 4425 4425 4425 4425 4425 4425 4425 4425 4425 4425 4425 4425 4425 4425 4425 4425 4456 4456 4488 4488 4521 4521 4521 4521 4521 4521 4521 4521 4521 4521 4521 4553 4587 4587 4620 4655 4655 4655 4655 4655 4655 4655 4655 4655 4655 4655 4655 4655 4655 4655 4655 4655 4655 4655 4620 4620 4620 4620 4620 4655 4655 4655 4655 4689 4689 4689 4689 4725 4725 4725 4725 4725 4689 4689 4689 4689 4655 4655 4689 4689 4689 4725 4725 4725 4725 4725 4689 4689 4689 4689 4689 4689 4689 4689 4725 4725 4725 4725 4725 4725 4725 4725 4725 4725 4725 4725 4725 4760 4725 4725 4725 4725 4725 4725 4725 4725 4725 4725 4725 4725 4725 4725 4725 4725 4760 4760 4760 4760 4760 4760 4760 4760 4760 4760 0 0 0 0 5713 5713 5713 5713 5713 5713 5713 5713 5713 5713 5713 5713 5713 0 0 0 5713 5713 5713 5713 5713 5713 5713 5713 5713 5713 5713 5713 5713 5713 5713 5713 5713 0 0 0 0 0 0 0 0 0 0 0 0 0 0 0 0 0 0 0 0 0 0 0 0 0 0 0 0 0 0 0 0 0 0 0 0 0 0 0 0 0 0 0 0 0 0 0 0 0 0 0 0 0 0 0 0 0 0 0 0 0 0 0 0 0 0 0 0 0 0 0 0 0 0 0 0 0 0 0 0 0 0 0 0 0 0 0 0 0 0 0 0 0 0 0 0 0 0 0 0 57130 52369 52369 52369 48340 39276 34912 33075 31421 33075 36966 41895 52369 57130 57130 57130 52369 48340 41895 34912 31421 29925 24170 20947 20947 0 0 0 0 48340 65535 65535 65535 65535 65535 65535 65535 65535 39276 29925 24170 21670 16537 17955 26184 34912 34912 34912 34912 31421 28565 28565 28565 28565 28565 28565
    0 0 0 0 0 0 0 0 0 0 0 0 0 0 0 0 0 0 0 0 0 0 0 0 0 0 0 0 0 0 0 0 0 0 5109 5067 5067 5027 5027 5027 5027 4987 4987 4987 5027 5067 5067 5067 5067 5067 5067 5027 5027 5027 5027 5027 5027 5027 5027 5027 5027 5027 5027 5027 5027 5027 4987 4871 4725 4725 4797 4834 4948 5067 5109 5109 5109 5109 5067 5067 5027 5027 5027 5027 4909 4834 4725 4689 4620 4587 4587 4587 4553 4553 0 0 0 0 0 0 0 0 0 4364 4394 4394 4394 4394 4364 4364 4364 4364 4334 4364 4364 4364 4364 4364 4364 4364 4364 4364 4394 4334 4334 4364 4364 4364 4364 4364 4334 4334 4334 4334 4334 4334 4334 4334 4334 4334 4364 4364 4364 4394 4394 4394 4425 4456 4456 4456 4456 4456 4456 4456 4456 4488 4488 4488 4488 4521 4521 4521 4521 4521 4521 4488 4488 4488 4488 4488 4456 4456 4456 4456 4425 4425 4425 4425 4425 4425 4425 4425 4425 4425 4425 4425 4425 4425 4425 4425 4425 4425 4425 4425 4425 4425 4425 4425 4425 4425 4425 4456 4456 4488 4488 4521 4521 4521 4521 4521 4521 4521 4521 4521 4521 4521 4553 4587 4620 4620 4655 4655 4655 4655 4655 4655 4655 4655 4655 4655 4655 4655 4655 4655 4655 4655 4655 4655 4655 4620 4620 4620 4620 4620 4655 4655 4655 4655 4689 4689 4689 4689 4725 4725 4725 4725 4725 4725 4689 4689 4689 4655 4655 4655 4689 4689 4689 4725 4725 4725 4725 4689 4689 4689 4689 4689 4689 4689 4689 4725 4725 4725 4725 4725 4725 4725 4725 4725 4725 4725 4760 4760 4760 4760 4760 4760 4760 4725 4725 4725 4725 4725 4725 4725 4725 4725 4725 4725 4725 4725 4760 4760 4760 4760 4760 4760 4760 4760 0 0 0 0 5713 5713 5713 5713 5713 5713 5713 5713 5713 5713 5713 5713 5713 5713 0 0 5713 5713 5713 5713 5713 5713 5713 5713 5713 5713 5713 5713 5713 5713 5713 5713 5713 5713 0 0 0 0 0 0 0 0 0 0 0 0 0 0 0 0 0 0 0 0 0 0 0 0 0 0 0 0 0 0 0 0 0 0 0 0 0 0 0 0 0 0 0 0 0 0 0 0 0 0 0 0 0 0 0 0 0 0 0 0 0 0 0 0 0 0 0 0 0 0 0 0 0 0 0 0 0 0 0 0 0 0 0 0 0 0 0 0 0 0 0 0 0 0 0 0 0 0 0 0 57130 52369 52369 52369 48340 39276 34912 33075 33075 34912 39276 44887 52369 57130 57130 57130 57130 52369 44887 39276 34912 29925 26184 20947 20947 0 0 0 0 0 65535 65535 65535 65535 65535 65535 65535 65535 39276 28565 23275 20271 16113 17955 24170 31421 36966 36966 36966 34912 29925 28565 28565 28565 28565 28565
    0 0 0 0 0 0 0 0 0 0 0 0 0 0 0 0 0 0 0 0 0 0 0 0 0 0 0 0 0 0 0 0 0 0 5109 5109 5067 5067 5067 5027 5027 5027 4987 4987 5027 5067 5067 5067 5067 5067 5067 5027 5027 5027 5027 5027 5027 5027 5027 5027 5027 5027 5027 5027 5027 5027 4987 4871 4725 4760 4834 4871 4987 5067 5109 5109 5067 5027 4948 4871 4760 4760 4797 4871 4871 4797 4689 4655 4620 4587 4587 4587 4553 4553 0 0 0 0 0 0 0 0 0 4364 4364 4364 4364 4364 4364 4364 4364 4334 4334 4364 4364 4364 4364 4364 4394 4394 4394 4394 4425 4334 4334 4364 4364 4364 4364 4334 4334 4334 4334 4334 4334 4334 4334 4334 4334 4334 4364 4364 4364 4394 4394 4425 4425 4456 4456 4456 4456 4456 4456 4456 4488 4488 4488 4488 4488 4488 4488 4488 4488 4488 4488 4488 4488 4488 4488 4488 4456 4456 4456 4456 4425 4425 4425 4425 4425 4425 4425 4425 4425 4425 4425 4425 4425 4425 4425 4425 4425 4425 4425 4425 4425 4425 4425 4425 4425 4425 4456 4456 4488 4488 4488 4521 4521 4521 4521 4521 4521 4521 4521 4521 4553 4553 4553 4587 4620 4620 4620 4620 4620 4620 4655 4655 4655 4655 4655 4655 4655 4655 4655 4655 4655 4655 4655 4655 4655 4620 4620 4620 4620 4620 4655 4655 4655 4655 4689 4689 4689 4725 4725 4725 4725 4725 4725 4725 4689 4689 4655 4655 4655 4655 4655 4689 4689 4725 4725 4689 4689 4689 4689 4689 4689 4689 4689 4689 4689 4725 4725 4725 4725 4725 4725 4725 4725 4725 4725 4725 4760 4760 4760 4760 4760 4760 4725 4725 4725 4725 4725 4725 4725 4725 4725 4725 4725 4725 4725 4725 4725 4760 4760 4760 4760 4760 4760 0 0 0 0 5713 5713 5713 5713 5713 5713 5713 5713 5713 5713 5713 5713 5713 5713 5713 0 0 5713 5713 5713 5713 5713 5765 5765 5765 5765 5765 5765 5765 5713 5713 5713 5713 5713 5713 0 0 0 0 0 0 0 0 0 0 0 0 0 0 0 0 0 0 0 0 0 0 0 0 0 0 0 0 0 0 0 0 0 0 0 0 0 0 0 0 0 0 0 0 0 0 0 0 0 0 0 0 0 0 0 0 0 0 0 0 0 0 0 0 0 0 0 0 0 0 0 0 0 0 0 0 0 0 0 0 0 0 0 0 0 0 0 0 0 0 0 0 0 0 0 0 0 0 0 0 0 0 48340 48340 48340 39276 34912 34912 34912 36966 41895 48340 52369 62843 62843 62843 57130 57130 48340 41895 36966 33075 28565 20947 20947 0 0 0 0 0 15327 22443 28565 31421 44887 52369 57130 57130 36966 27323 21670 18483 15327 16984 22443 29925 36966 36966 36966 36966 33075 29925 29925 29925 29925 28565
    0 0 0 0 0 0 0 0 0 0 0 0 0 0 0 0 0 0 0 0 0 0 0 0 0 0 0 0 0 0 0 0 0 5109 5109 5109 5109 5067 5067 5067 5027 5027 4987 4987 5027 5067 5067 5067 5067 5067 5067 5067 5027 5027 5027 5027 5027 5027 5027 5027 5027 5027 5027 5027 5027 5027 4987 4834 4689 4760 4834 4871 4987 5109 5109 5109 5027 4948 4871 4760 4587 4553 4521 4587 4689 4689 4655 4620 4587 4587 4587 4587 4553 4553 0 0 0 0 0 0 0 0 5193 4553 4456 4425 4394 4364 4364 4364 4334 4334 4334 4334 4364 4364 4364 4364 4394 4394 4394 4394 4488 0 0 4364 4364 4364 4334 4334 4334 4334 4334 4334 4334 4334 4334 4334 4334 4334 4364 4364 4394 4394 4425 4425 4425 4456 4456 4456 4456 4456 4456 4488 4488 4488 4488 4488 4488 4488 4488 4488 4488 4488 4488 4488 4488 4488 4488 4488 4488 4456 4456 4456 4425 4425 4425 4425 4425 4425 4425 4425 4425 4425 4425 4425 4425 4425 4425 4425 4425 4425 4425 4425 4425 4425 4425 4425 4425 4425 4456 4456 4488 4488 4521 4521 4521 4521 4521 4521 4521 4553 4553 4553 4553 4553 4587 4587 4620 4620 4620 4620 4620 4655 4655 4655 4655 4655 4655 4655 4655 4655 4655 4655 4655 4655 4655 4655 4655 4620 4620 4620 4620 4620 4655 4655 4655 4689 4689 4689 4689 4725 4725 4725 4725 4725 4725 4689 4689 4689 4655 4655 4620 4620 4655 4655 4689 4689 4689 4689 4689 4689 4689 4689 4689 4689 4689 4689 4689 4689 4725 4725 4725 4725 4725 4725 4725 4725 4725 4725 4760 4760 4760 4760 4760 4760 4725 4725 4725 4725 4725 4725 4725 4725 4725 4725 4725 4725 4725 4725 4725 4725 4725 4725 4760 4760 4760 0 0 5661 5713 5713 5713 5713 5713 5713 5713 5713 5713 5713 5713 5713 5713 5713 5713 0 0 5713 5713 5713 5713 5713 5765 5765 5765 5765 5765 5765 5765 5765 5713 5713 5713 5713 5713 5713 0 0 0 0 0 0 0 0 0 0 0 0 0 0 0 0 0 0 0 0 0 0 0 0 0 0 0 0 0 0 0 0 0 0 0 0 0 0 0 0 0 0 0 0 0 0 0 0 0 0 0 0 0 0 0 0 0 0 0 0 0 0 0 0 0 0 0 0 0 0 0 0 0 0 0 0 0 0 0 0 0 0 0 0 0 0 0 0 0 0 0 0 0 0 0 0 0 0 0 0 0 0 0 0 48340 36966 34912 34912 36966 39276 44887 48340 57130 57130 62843 62843 57130 57130 52369 44887 41895 36966 33075 26184 20947 0 0 0 0 0 15327 15327 17955 19043 24170 29925 36966 41895 33075 25137 20947 17955 14962 16537 20947 28565 36966 36966 36966 36966 34912 31421 29925 29925 29925 28565
    0 0 0 0 0 0 0 0 0 0 0 0 0 0 0 0 0 0 0 0 0 0 0 0 0 0 0 0 0 0 0 0 0 5109 5109 5109 5109 5109 5067 5067 5027 5027 4987 4987 0 5067 5067 5067 5067 5067 5067 5067 5067 5067 5067 5027 5027 5027 5027 5027 5027 5027 5027 5027 5027 5027 4987 4760 4620 4760 4871 4909 5027 5109 5109 5109 4987 4909 4797 4689 4488 4456 4425 4334 4394 4553 4620 4587 4587 4587 4587 4587 4553 4553 0 0 0 0 0 0 0 0 5193 4488 4425 4394 4394 4334 4334 4334 4334 4334 4334 4334 4334 4334 4364 4364 4364 4394 4394 4425 4655 0 0 0 4364 4334 4334 4334 4304 4304 4304 4304 4304 4334 4334 4334 4334 4334 4364 4394 4394 4425 4425 4425 4425 4456 4456 4456 4456 4456 4425 4553 4521 4521 4521 4521 4488 4488 4488 4488 4488 4488 4488 4488 4488 4488 4488 4488 4488 4456 4456 4456 4456 4456 4456 4456 4456 4456 4425 4425 4425 4456 4456 4456 4456 4456 4425 4425 4425 4425 4425 4425 4425 4425 4425 4425 4425 4456 4456 4456 4488 4488 4521 4521 4521 4521 4521 4521 4553 4553 4553 4587 4587 4587 4587 4620 4620 4620 4620 4620 4655 4655 4655 4655 4655 4655 4655 4655 4655 4655 4655 4655 4655 4655 4655 4655 4655 4620 4620 4620 4620 4620 4655 4655 4655 4689 4689 4689 4689 4725 4725 4725 4725 4725 4725 4689 4689 4655 4655 4620 4620 4620 4620 4655 4655 4689 4689 4689 4689 4689 4689 4689 4689 4689 4689 4689 4689 4689 4689 4689 4725 4725 4725 4725 4725 4725 4725 4725 4725 4725 4725 4725 4725 4725 4725 4725 4725 4725 4725 4725 4725 4725 4725 4725 4725 4725 4725 4725 4725 4725 4725 4725 4725 4725 0 5661 5661 5661 5713 5713 5713 5713 5713 5713 5713 5713 5713 5713 5713 5713 5713 5713 5713 0 0 5713 5713 5713 5713 5713 5765 5765 5765 5765 5765 5765 5765 5765 5713 5713 5713 5713 5713 5713 0 0 0 0 0 0 0 0 0 0 0 0 0 0 0 0 0 0 0 0 0 0 0 0 0 0 0 0 0 0 0 0 0 0 0 0 0 0 0 0 0 0 0 0 0 0 0 0 0 0 0 0 0 0 0 0 0 0 0 0 0 0 0 0 0 0 0 0 0 0 0 0 0 0 0 0 0 0 0 0 0 0 0 0 0 0 0 0 0 0 0 0 0 0 0 0 0 0 0 0 0 0 0 0 48340 36966 34912 36966 41895 44887 48340 52369 57130 57130 57130 57130 57130 57130 52369 52369 52369 48340 48340 48340 0 0 0 0 0 0 15327 15327 15327 15327 18483 22443 27323 33075 31421 26184 20947 17955 15710 16113 20271 28565 36966 36966 39276 39276 36966 34912 31421 31421 29925 28565
    0 0 0 0 0 0 0 0 0 0 0 0 0 0 0 0 0 0 0 0 0 0 0 0 0 0 0 0 0 0 0 0 0 5151 5151 5109 5109 5109 5109 5067 5067 5027 4987 0 0 5067 5067 5067 5067 5067 5067 5067 5067 5067 5067 5067 5067 5067 5067 5067 5027 5027 5027 5027 5027 5027 5027 4655 4587 4871 4948 4987 5067 5067 5067 5067 4987 4909 4797 4689 4521 4456 4425 4334 4334 4521 4587 4587 4587 4587 4587 4587 4553 4553 0 0 0 0 0 0 0 0 5193 4553 4456 4425 4394 4334 4334 4334 4334 4334 4334 4334 4334 4334 4364 4364 4364 4364 4364 4364 4334 0 0 0 0 4334 4304 4304 4304 4304 4304 4304 4304 4334 4334 4334 4334 4334 4394 4394 4394 4425 4425 4425 4425 4425 4425 4425 0 0 4725 4620 4587 4587 4553 4521 4488 4488 4488 4456 4456 4456 4456 4456 4456 4456 4488 4488 4488 4456 4456 4456 4456 4456 4456 4456 4456 4456 4456 4425 4456 4456 4456 4456 4456 4456 4456 4425 4425 4425 4425 4425 4425 4425 4425 4425 4425 4456 4456 4488 4488 4488 4521 4521 4521 4521 4521 4553 4553 4587 4587 4587 4587 4587 4620 4620 4620 4620 4620 4655 4655 4655 4655 4655 4655 4655 4655 4655 4655 4655 4655 4655 4655 4655 4655 4655 4655 4655 4655 4620 4620 4655 4655 4655 4655 4655 4689 4689 4689 4689 4689 4725 4725 4689 4689 4689 4655 4655 4620 4620 4620 4620 4620 4620 4655 4655 4655 4655 4655 4689 4689 4689 4689 4689 4689 4689 4689 4689 4689 4689 4689 4689 4725 4725 4725 4725 4725 4725 4725 4725 4725 4725 4725 4725 4725 4725 4725 4725 4725 4725 4725 4725 4725 4725 4725 4725 4725 4725 4725 4725 4725 4725 4725 0 5661 5661 5661 5661 5713 5713 5713 5713 5713 5713 5713 5713 5713 5713 5713 5713 5713 5713 5713 0 0 5713 5713 5713 5713 5713 5765 5765 5765 5765 5765 5765 5765 5765 5713 5713 5713 5713 5713 5713 0 0 0 0 0 0 0 0 0 0 0 0 0 0 0 0 0 0 0 0 0 0 0 0 0 0 0 0 0 0 0 0 0 0 0 0 0 0 0 0 0 0 0 0 0 0 0 0 0 0 0 0 0 0 0 0 0 0 0 0 0 0 0 0 0 0 0 0 0 0 0 0 0 0 0 0 0 0 0 0 0 0 0 0 0 0 0 0 0 0 0 0 0 0 0 0 0 0 0 0 0 0 0 0 0 33075 33075 36966 44887 48340 52369 57130 57130 57130 57130 57130 57130 57130 52369 52369 52369 48340 48340 48340 0 0 0 0 0 0 15327 15327 15327 15327 17456 20947 25137 31421 31421 27323 22443 19043 16113 15710 19043 27323 39276 39276 39276 39276 39276 36966 34912 33075 31421 28565
    0 0 0 0 0 0 0 0 0 0 0 0 0 0 0 0 0 0 0 0 0 0 0 0 0 0 0 0 0 0 0 0 0 5151 5151 5151 5151 5109 5109 5109 5027 4987 4871 4871 4834 4834 5067 5067 5067 5067 5067 5067 5067 5067 5067 5067 5067 5067 5067 5067 0 0 0 0 0 0 0 0 5067 5067 5067 5067 5067 5067 5067 5067 4987 4909 4797 4655 4521 4456 4425 4334 4334 4456 4587 4587 4587 4587 4587 4587 4553 4553 0 0 0 0 0 0 5193 5193 5193 4834 4620 4521 4456 4334 4304 4304 4304 4304 4304 4334 4334 4334 4334 4364 4364 4364 4364 4364 4334 0 0 0 0 4334 4304 4275 4275 4275 4304 4304 4304 4304 4334 4334 4334 4334 4304 4394 4394 4425 4425 4425 4425 4425 4425 4425 0 4725 4725 4689 4655 4655 4620 4587 4521 4488 4456 4456 4456 4456 4456 4456 4456 4456 4456 4488 4488 4456 4456 4456 4456 4456 4456 4456 4456 4456 4456 4456 4456 4456 4456 4456 4456 4456 4456 4425 4425 4425 4425 4425 4425 4425 4425 4425 4425 4456 4456 4488 4488 4521 4521 4521 4553 4553 4553 4553 4587 4587 4587 4587 4620 4620 4620 4620 4620 4620 4620 4655 4655 4655 4655 4655 4655 4655 4655 4655 4655 4655 4655 4655 4655 4655 4655 4655 4655 4655 4655 4655 4620 4655 4655 4655 4655 4655 4655 4655 4689 4689 4689 4689 4689 4689 4689 4655 4655 4620 4620 4620 4620 4620 4620 4620 4620 4655 4655 4655 4655 4655 4655 4689 4689 4689 4689 4689 4689 4689 4689 4689 4689 4689 4689 4725 4725 4725 4725 4725 4725 4725 4725 4725 4725 4725 4725 4725 4725 4725 4725 4725 4725 4725 4725 4725 4725 4725 4725 4725 4725 4725 4725 4725 4725 5661 5661 5661 5661 5661 5713 5713 5713 5713 5713 5713 5713 5713 5713 5713 5713 5713 5713 5713 5713 0 0 5713 5713 5713 5713 5713 5765 5765 5765 5765 5765 5765 5765 5765 5713 5713 5713 5713 5713 5713 0 0 0 0 0 0 0 0 0 0 0 0 0 0 0 0 0 0 0 0 0 0 0 0 0 0 0 0 0 0 0 0 0 0 0 0 0 0 0 0 0 0 0 0 0 0 0 0 0 0 0 0 0 0 0 0 0 0 0 0 0 0 0 0 0 0 0 0 0 0 0 0 0 0 0 0 0 0 0 0 0 0 0 0 0 0 0 0 0 0 0 0 0 0 0 0 0 0 0 0 0 0 0 0 0 0 0 57130 57130 57130 57130 57130 52369 52369 52369 52369 52369 52369 52369 52369 52369 48340 48340 48340 0 0 0 0 0 0 15327 15327 15327 15327 16113 19043 22443 28565 31421 29925 24170 20947 17456 14614 17955 28565 39276 39276 39276 39276 39276 39276 36966 36966 34912 28565
    0 0 0 0 0 0 0 0 0 0 0 0 0 0 0 0 0 0 0 0 0 0 0 0 0 0 0 0 0 0 0 0 0 5151 5151 5151 5151 5151 5109 5067 4987 4909 4871 4871 4834 4871 4987 5027 5027 5067 5067 5109 5109 5109 5109 5067 5067 5067 5067 5067 0 0 0 0 0 0 0 4987 5027 5027 5067 5027 5027 5027 5027 5027 4987 4909 4834 4655 4521 4456 4394 4334 4334 4334 4587 4587 4587 4587 4587 4587 4553 4553 0 0 0 0 0 5193 5193 5193 5193 4987 4760 4620 4488 4364 4304 4304 4304 4304 4304 4304 4334 4334 4334 4364 4364 4364 4364 4364 4334 0 0 0 0 4304 4275 4275 4275 4275 4275 4304 4304 4304 4304 4304 4304 4304 4304 4304 4394 4425 4425 4425 4425 4425 4425 4425 0 4725 4725 4725 4689 4689 4689 4620 4587 4521 4488 4456 4456 4456 4456 4456 4456 4456 4456 4488 4488 4488 4488 4456 4456 4456 4456 4456 4456 4456 4456 4456 4456 4456 4456 4456 4456 4456 4456 4456 4425 4425 4425 4425 4425 4425 4425 4425 4425 4456 4456 4488 4521 4553 4553 4553 4553 4587 4587 4587 4620 4620 4620 4620 4620 4620 4620 4620 4620 4620 4620 4655 4655 4655 4655 4655 4655 4655 4655 4655 4655 4655 4655 4655 4655 4655 4655 4655 4655 4655 4655 4655 4620 4655 4655 4655 4655 4655 4655 4655 4655 4655 4689 4689 4689 4689 4655 4655 4655 4620 4620 4620 4620 4620 4620 4620 4620 4620 4655 4655 4655 4655 4655 4655 4655 4655 4655 4655 4655 4655 4655 4689 4689 4689 4689 4689 4725 4725 4725 4725 4725 4725 4725 4725 4725 4725 4689 4689 4725 4725 4725 4725 4725 4725 4725 4725 4725 4725 4725 4725 4725 4725 4725 4725 0 5661 5661 5661 5661 5661 5713 5713 5713 5713 5713 5713 5713 5713 5713 5713 5713 5713 5713 5713 5713 0 5713 5713 5713 5713 5713 5713 5765 5765 5765 5765 5765 5765 5765 5765 5713 5713 5713 5713 5713 5713 0 0 0 0 0 0 0 0 0 0 0 0 0 0 0 0 0 0 0 0 0 0 0 0 0 0 0 0 0 0 0 0 0 0 0 0 0 0 0 0 0 0 0 0 0 0 0 0 0 0 0 0 0 0 0 0 0 0 0 0 0 0 0 0 0 0 0 0 0 0 0 0 0 0 0 0 0 0 0 0 0 0 0 0 0 0 0 0 0 0 0 0 0 0 0 0 0 0 0 0 0 0 0 0 0 0 0 0 57130 57130 52369 52369 52369 52369 52369 52369 52369 52369 52369 52369 52369 48340 48340 48340 0 0 0 0 0 0 15327 15327 15327 15327 15327 17955 20947 27323 28565 28565 24170 22443 18483 16537 21670 33075 39276 39276 39276 39276 39276 39276 39276 39276 39276 0
    0 0 0 0 0 0 0 0 0 0 0 0 0 0 0 0 0 0 0 0 0 0 0 0 0 0 0 0 0 0 0 0 0 5151 5151 5151 5151 5151 5109 5067 4987 4909 4909 4871 4909 4909 4987 5027 5027 5067 5109 5109 5109 5109 5109 5109 5067 5067 5067 5067 0 0 0 0 0 0 4987 4987 5027 5027 5027 5027 5027 5027 5027 5027 4987 4948 4871 4689 4587 4456 4425 4334 4334 0 4587 4587 4587 4587 4587 4587 4553 0 0 0 0 0 0 5193 5193 5193 5193 5067 4834 4655 4488 4364 4304 4304 4304 4304 4304 4304 4304 4334 4334 4334 4364 4364 4364 4334 4334 0 0 0 0 4304 4275 4275 4275 4275 4275 4304 4304 4304 4304 4304 4304 4304 4304 4304 4304 4425 4425 4425 4425 4425 4425 4425 4587 4689 4725 4725 4725 4725 4725 4689 4655 4620 4521 4456 4456 4456 4456 4456 4456 4456 4488 4488 4521 4521 4521 4488 4456 4456 4456 4456 4456 4456 4456 4456 4456 4456 4456 4456 4456 4456 4456 4456 4456 4456 4456 4456 4456 4425 4425 4425 4425 4456 4456 4488 4521 4553 4587 4587 4587 4587 4620 4620 4620 4620 4620 4620 4620 4620 4620 4620 4620 4620 4620 4655 4655 4655 4655 4655 4655 4655 4655 4655 4655 4655 4655 4655 4655 4655 4655 4655 4655 4655 4655 4655 4620 4620 4655 4655 4655 4655 4655 4655 4655 4655 4655 4655 4655 4655 4655 4655 4620 4620 4620 4620 4620 4620 4620 4620 4620 4620 4655 4655 4655 4655 4655 4655 4655 4655 4655 4655 4655 4655 4655 4689 4689 4689 4689 4689 4689 4725 4725 4725 4725 4689 4689 4689 4689 4689 4689 4689 4689 4725 4725 4725 4725 4725 4725 4725 4725 4725 4725 4725 4725 4725 4725 4725 0 5661 5661 5661 5661 5661 5661 5713 5713 5713 5713 5713 5713 5713 5713 5713 5713 5713 5713 5713 5713 5713 5713 5713 5713 5713 5713 5713 5765 5765 5765 5765 5765 5765 5765 5713 5713 5713 5713 5713 5713 5713 0 0 0 0 0 0 0 0 0 0 0 0 0 0 0 0 0 0 0 0 0 0 0 0 0 0 0 0 0 0 0 0 0 0 0 0 0 0 0 0 0 0 0 0 0 0 0 0 0 0 0 0 0 0 0 0 0 0 0 0 0 0 0 0 0 0 0 0 0 0 0 0 0 0 0 0 0 0 0 0 0 0 0 0 0 0 0 0 0 0 0 0 0 0 0 0 0 0 0 0 0 0 0 0 0 0 0 0 57130 52369 52369 52369 52369 52369 52369 52369 52369 52369 52369 52369 52369 48340 48340 48340 0 0 0 0 0 0 0 0 14962 14962 14962 17955 20947 28565 28565 27323 24170 23275 19638 20271 27323 39276 39276 39276 39276 39276 39276 39276 39276 39276 39276 0
    0 0 0 0 0 0 0 0 0 0 0 0 0 0 0 0 0 0 0 0 0 0 0 0 0 0 0 0 0 0 0 0 0 5151 5151 5151 5151 5109 5067 5027 4948 4909 4909 4909 4909 4948 4987 5027 5027 5067 5067 5109 5109 5109 5109 5067 5067 5067 5067 5067 0 0 0 0 4948 4948 4987 4987 4987 4987 5027 4987 4987 4987 4987 4987 5027 5027 5067 5067 5067 0 0 0 0 0 0 0 0 0 0 0 0 0 0 0 0 0 0 5193 5193 5193 5193 5109 4909 4725 4553 4394 4304 4304 4304 4304 4304 4304 4304 4334 4334 4334 4364 4364 4364 4334 4334 0 0 0 0 0 4246 4246 4275 4275 4304 4304 4304 4304 4304 4304 4304 4304 4304 4304 4304 0 0 0 0 0 4425 4425 4488 4553 4620 4655 4689 4689 4725 4725 4689 4689 4620 4425 4425 4456 4456 4456 4456 4488 4488 4488 4488 4488 4488 4488 4488 4488 4456 4456 4456 4456 4456 4456 4456 4456 4456 4488 4456 4456 4456 4456 4456 4456 4456 4456 4456 4456 4456 4425 4425 4456 4456 4488 4553 4587 4620 4620 4620 4620 4620 4620 4620 4620 4620 4620 4655 4655 4655 4655 4655 4620 4620 4655 4655 4655 4655 4655 4655 4655 4655 4655 4655 4655 4655 4655 4655 4655 4655 4655 4655 4655 4655 4655 4620 4620 4620 4620 4655 4655 4655 4655 4655 4655 4655 4655 4655 4655 4655 4655 4620 4620 4620 4620 4620 4620 4620 4620 4655 4655 4655 4655 4655 4655 4655 4655 4655 4655 4655 4655 4655 4655 4655 4655 4689 4689 4689 4689 4689 4689 4689 4689 4689 4689 4689 4689 4689 4689 4689 4689 4689 4689 4689 4689 4725 4725 4725 4725 4725 4725 4725 4725 4725 4725 4689 0 5661 5661 5661 5661 5661 5661 5661 5661 5713 5713 5713 5661 5661 5661 5661 5713 5713 5713 5713 5713 5713 5713 5713 5713 5713 5713 5713 5713 5765 5765 5765 5765 5765 5713 5713 5713 5713 5713 5713 5713 5713 0 0 0 0 0 0 0 0 0 0 0 0 0 0 0 0 0 0 0 0 0 0 0 0 0 0 0 0 0 0 0 0 0 0 0 0 0 0 0 0 0 0 0 0 0 0 0 0 0 0 0 0 0 0 0 0 0 0 0 0 0 0 0 0 0 0 0 0 0 0 0 0 0 0 0 0 0 0 0 0 0 0 0 0 0 0 0 0 0 0 0 0 0 0 0 0 0 0 0 0 0 0 0 0 0 0 0 0 0 52369 52369 52369 52369 52369 52369 52369 52369 52369 52369 52369 52369 52369 48340 48340 48340 0 0 0 0 0 0 0 0 0 0 0 0 0 44887 25137 23275 22443 21670 19638 23275 28565 36966 39276 39276 39276 39276 39276 39276 39276 39276 39276 39276
    0 0 0 0 0 0 0 0 0 0 0 0 0 0 0 0 0 0 0 0 0 0 0 0 0 0 0 0 0 0 0 0 0 5109 5067 5109 5067 5067 5067 5027 4948 4909 4909 4909 4948 4948 4987 5027 5027 5027 5067 5109 5109 5109 5067 5067 5067 5027 5027 5027 4987 0 0 0 4948 4948 4987 4987 4987 4987 4987 4987 4987 4987 4987 4987 4987 4987 0 0 0 0 0 0 0 0 0 0 0 0 0 0 0 0 0 0 0 0 0 5193 5193 5193 5193 5193 5027 4834 4587 4425 4304 4304 4304 4304 4304 4304 4334 4334 4334 4334 4364 4364 4364 4334 0 0 0 0 0 0 4246 4246 4275 4275 4304 4304 4304 4304 4304 4304 4304 4304 4304 4304 4304 0 0 0 0 0 4425 4425 4456 4521 4553 4587 4655 4689 4725 4725 4689 4689 4689 4425 4425 4456 4456 4456 4488 4488 4488 4488 4488 4488 4488 4488 4488 4488 0 4456 4456 4456 4456 4456 4456 4456 4488 4488 4488 4488 4456 4456 4456 4456 4456 4456 4456 4456 4456 4425 4425 4456 4456 4521 4587 4620 4655 4655 4655 4620 4655 4655 4655 4655 4655 4655 4655 4655 4655 4655 4655 4655 4655 4655 4655 4655 4655 4655 4689 4689 4689 4655 4655 4655 4655 4655 4655 4655 4655 4655 4655 4655 4655 4655 4620 4620 4620 4620 4620 4620 4620 4620 4620 4655 4655 4655 4655 4655 4655 4655 4620 4620 4620 4620 4620 4620 4655 4655 4655 4655 4655 4655 4655 4620 4620 4620 4620 4620 4620 4655 4655 4655 4655 4655 4689 4689 4689 4689 4689 4689 4689 4689 4689 4689 4689 4689 4689 4689 4689 4689 4689 4689 4689 4689 4689 4689 4725 4725 4725 4725 4725 4725 4725 4725 0 0 5661 5661 5661 5661 5661 5661 5661 5661 5661 5661 5661 5661 5661 5661 5661 5713 5713 5713 5713 5713 5713 5713 5713 5713 5713 5713 5713 5713 5765 5765 5765 5765 5765 5713 5713 5713 5713 5713 5713 5713 5713 0 0 0 0 0 0 0 0 0 0 0 0 0 0 0 0 0 0 0 0 0 0 0 0 0 0 0 0 0 0 0 0 0 0 0 0 0 0 0 0 0 0 0 0 0 0 0 0 0 0 0 0 0 0 0 0 0 0 0 0 0 0 0 0 0 0 0 0 0 0 0 0 0 0 0 0 0 0 0 0 0 0 0 0 0 0 0 0 0 0 0 0 0 0 0 0 0 0 0 0 0 0 0 0 0 0 0 0 0 52369 52369 52369 52369 52369 52369 52369 52369 52369 52369 52369 52369 52369 0 0 0 0 0 0 0 0 0 0 0 0 0 0 0 0 44887 20947 20271 19638 19638 18483 21670 25137 31421 36966 39276 39276 39276 36966 34912 34912 33075 31421 26184
    0 0 0 0 0 0 0 0 0 0 0 0 0 0 0 0 0 0 0 0 0 0 0 0 0 0 0 0 0 0 0 0 0 5027 4987 5027 5027 5027 5027 5027 4987 4948 4948 4948 4948 4987 4987 5027 5027 5027 5067 5109 5109 5109 5067 5067 5027 5027 5027 5027 4987 0 0 0 4948 4948 4948 4987 4987 4987 4987 4987 4987 4987 4987 4948 4948 4948 0 0 0 0 0 0 0 0 0 0 0 0 0 0 0 0 0 0 0 0 0 5193 5193 5193 5193 5193 5067 4871 4553 4394 4304 4304 4304 4304 4334 4334 4334 4334 4394 4488 4655 5193 5193 5193 0 0 0 0 0 0 4246 4246 4275 4275 4304 4304 4304 4304 4304 4304 4304 4304 4304 4304 4304 0 0 0 0 0 4425 4425 4456 4488 4521 4553 4587 4620 4689 4725 4689 4689 4689 0 4425 4456 4456 4488 4488 4488 4488 4488 4488 4488 4488 4488 4488 4488 4488 0 4456 4456 4456 4456 4456 4488 4488 4488 4488 4488 4488 4456 4456 4456 4456 4456 4456 4456 4425 4425 4425 4456 4456 4521 4587 4655 4655 4655 4655 4655 4655 4655 4689 4689 4689 4655 4655 4655 4655 4655 4655 4655 4655 4655 4655 4655 4655 4689 4689 4689 4689 4689 4689 4689 4689 4689 4689 4689 4655 4655 4655 4655 4655 4620 4620 4620 4620 4620 4620 4620 4620 4620 4620 4620 4655 4655 4655 4655 4655 4655 4620 4620 4620 4655 4655 4655 4655 4655 4655 4655 4655 4655 4655 4620 4620 4620 4620 4620 4620 4655 4655 4655 4655 4655 4655 4689 4689 4689 4689 4689 4689 4689 4689 4689 4689 4689 4689 4689 4689 4689 4689 4689 4689 4689 4689 4689 4725 4725 4725 4725 4725 4725 4725 4725 0 5661 5661 5661 5661 5661 5661 5661 5661 5661 5661 5661 5661 5661 5661 5661 5661 5713 5713 5713 5713 5713 5713 5713 5713 5713 5713 5713 5713 5713 5713 5713 5713 5713 5713 5713 5713 5713 5713 5713 5713 5713 5713 0 0 0 0 0 0 0 0 0 0 0 0 0 0 0 0 0 0 0 0 0 0 0 0 0 0 0 0 0 0 0 0 0 0 0 0 0 0 0 0 0 0 0 0 0 0 0 0 0 0 0 0 0 0 0 0 0 0 0 0 0 0 0 0 0 0 0 0 0 0 0 0 0 0 0 0 0 0 0 0 0 0 0 0 0 0 0 0 0 0 0 0 0 0 0 0 0 0 0 0 0 0 0 0 0 0 0 0 0 0 48340 48340 48340 48340 48340 52369 52369 52369 52369 52369 0 0 0 0 0 0 0 0 0 0 0 0 0 0 0 0 0 0 0 16537 17456 17955 17955 17955 20947 24170 28565 34912 39276 39276 39276 34912 31421 28565 27323 25137 22443
    0 0 0 0 0 0 0 0 0 0 0 0 0 0 0 0 0 0 0 0 0 0 0 0 0 0 0 0 0 0 0 0 0 4948 4948 4987 4987 4987 4987 4987 4987 4948 4948 4987 4987 4987 4987 4987 5027 5027 5109 5151 5151 5109 5109 5067 5067 5027 5027 4987 4987 0 0 0 4948 4948 4948 4948 4948 4948 4987 4987 4987 4987 4987 4948 4948 0 0 0 0 0 0 0 0 0 0 0 0 0 0 0 0 0 0 0 0 0 0 0 5193 5193 5193 5193 5193 5193 4304 4304 4304 4304 4334 4334 4334 4364 4364 4364 4394 4553 4797 5193 5193 5193 5193 0 0 0 0 0 0 0 0 0 4304 4304 4304 4304 4304 4304 4304 4304 4304 4304 4304 0 0 0 0 0 4425 4425 4456 4456 4488 4521 4553 4587 4689 4725 4689 4689 4689 0 0 4488 4488 4488 4488 4488 4488 4488 4488 4488 4488 4488 4488 4488 4456 0 4456 4456 4456 4456 4456 4488 4488 4488 4488 4488 4488 4488 4456 4456 4456 4456 4456 4456 4425 4425 4425 4425 4425 4521 4620 4655 4655 4655 4655 4689 4689 4689 4689 4689 4689 4689 4689 4655 4655 4655 4655 4655 4655 4655 4655 4655 4689 4689 4689 4689 4689 4689 4689 4689 4689 4689 4689 4689 4655 4655 4655 4655 4655 4620 4620 4655 4655 4655 4655 4655 4655 4655 4620 4620 4655 4655 4655 4655 4655 4655 4620 4620 4620 4655 4655 4655 4655 4655 4655 4655 4655 4655 4655 4620 4620 4620 4620 4620 4655 4655 4655 4655 4655 4655 4655 4655 4689 4689 4689 4689 4689 4689 4689 4689 4689 4689 4689 4655 4655 4689 4689 4689 4689 4689 4689 4689 4725 4725 4725 4725 4725 4725 4725 0 0 5661 5661 5661 5661 5661 5661 5661 5661 5661 5661 5661 5661 5661 5661 5661 5661 5713 5713 5713 5713 5713 5713 5713 5713 5713 5713 5713 5713 5713 5713 5713 5713 5713 5713 5713 5713 5713 5713 5713 5713 5713 5713 5713 0 0 0 0 0 0 0 0 0 0 0 0 0 0 0 0 0 0 0 0 0 0 0 0 0 0 0 0 0 0 0 0 0 0 0 0 0 0 0 0 0 0 0 0 0 0 0 0 0 0 0 0 0 0 0 0 0 0 0 0 0 0 0 0 0 0 0 0 0 0 0 0 0 0 0 0 0 0 0 0 0 0 0 0 0 0 0 0 0 0 0 0 0 0 0 0 0 0 0 0 0 0 0 0 0 0 0 0 0 0 0 0 0 0 0 0 0 0 0 0 0 0 0 0 0 0 0 0 0 0 0 0 0 0 0 0 0 0 19638 19043 19043 19043 19043 20271 21670 25137 31421 39276 41895 41895 34912 29925 29925 28565 26184 25137
    0 0 0 0 0 0 0 0 0 0 0 0 0 0 0 0 0 0 0 0 0 0 0 0 0 0 0 0 0 0 0 0 0 4909 4871 4948 4948 4987 4987 4987 4987 4987 4987 4987 4987 4987 4987 4987 5027 5067 5109 5151 5193 5151 5151 5109 5067 5027 4987 4987 4987 0 0 4909 4948 4948 4948 4948 4948 4948 4948 4948 4987 4987 4987 0 0 0 0 0 0 0 0 0 0 0 0 0 0 0 0 0 0 0 0 0 0 0 0 0 0 0 0 0 0 0 0 0 4304 4334 4364 4364 4364 4364 4364 4364 4425 4587 4834 5193 5193 5193 5151 5151 5151 5193 5193 5193 5193 5193 0 0 0 4304 4304 4304 4304 4304 4304 4304 4304 4304 4304 0 0 0 0 0 4425 4425 4394 4394 4425 4425 4425 4456 4553 0 0 0 0 0 0 4488 4488 4488 4488 4488 4488 4488 4488 4488 4488 4488 4488 4456 4456 0 4456 4456 4456 4456 4456 4488 4488 4488 4488 4488 4488 4488 4488 4488 4488 4488 4456 4456 4456 4456 4456 4456 4425 4553 4655 4655 4655 4655 4689 4725 4725 4725 4725 4725 4725 4725 4689 4689 4689 4655 4655 4655 4655 4655 4655 4689 4689 4689 4689 4689 4689 4689 4689 4689 4689 4689 4689 4689 4655 4655 4655 4655 4620 4620 4655 4655 4655 4655 4655 4655 4655 4655 4620 4620 4655 4655 4655 4655 4655 4655 4620 4620 4620 4655 4655 4655 4655 4655 4655 4655 4655 4655 4655 4620 4620 4620 4620 4620 4655 4655 4655 4655 4655 4655 4655 4655 4655 4655 4655 4655 4655 4655 4655 4655 4655 4655 4655 4655 4655 4655 4689 4689 4689 4689 4689 4689 4725 4725 4725 4725 4725 4725 4725 0 0 5661 5661 5661 5661 5661 5661 5661 5661 5661 5661 5661 5661 5661 5661 5661 5661 5713 5713 5713 5713 5713 5713 5713 5713 5713 5713 5713 5713 5713 5713 5713 5713 5713 5713 5713 5713 5713 5713 5713 5713 5713 5713 5713 0 0 0 0 0 0 0 0 0 0 0 0 0 0 0 0 0 0 0 0 0 0 0 0 0 0 0 0 0 0 0 0 0 0 0 0 0 0 0 0 0 0 0 0 0 0 0 0 0 0 0 0 0 0 0 0 0 0 0 0 0 0 0 0 0 0 0 0 0 0 0 0 0 0 0 0 0 0 0 0 0 0 0 0 0 0 0 0 0 0 0 0 0 0 0 0 0 0 0 0 0 0 0 0 0 0 0 0 0 0 0 0 0 0 0 0 0 0 0 0 0 0 0 0 0 0 0 0 0 0 0 0 65535 65535 65535 65535 65535 0 21670 20271 19043 19043 19638 20271 20947 23275 28565 41895 41895 41895 34912 31421 33075 33075 31421 33075
    0 0 0 0 0 0 0 0 0 0 0 0 0 0 0 0 0 0 0 0 0 0 0 0 0 0 0 0 0 0 0 0 0 4834 4834 4871 4948 4948 4987 4987 4987 4987 4948 4987 4987 4987 4987 4987 5027 5067 5109 5193 5193 5193 5151 5151 5109 5067 5027 4987 4987 0 0 4909 4909 4948 4948 4948 4948 4948 4948 4948 4948 4948 4987 0 0 0 0 0 0 0 0 0 0 0 0 0 0 0 0 0 0 0 0 0 0 0 0 0 0 0 0 0 0 0 0 0 0 4334 4364 4394 4394 4394 4394 4364 4456 4655 4948 5193 5193 5193 5151 5151 5151 5193 5193 5193 5193 5193 0 0 0 4275 4304 4304 4394 4488 4553 4655 4797 4871 5193 0 0 0 0 0 0 4394 4394 4394 4394 4394 4394 4394 4394 0 0 0 0 0 0 0 4488 4488 4488 4488 4488 4488 4488 4488 4488 4488 4488 4456 4456 4521 4488 4488 4488 4488 4456 4488 4488 4488 4488 4488 4488 4488 4488 4488 4488 4488 4488 4488 4488 4488 4488 4488 4521 0 0 0 0 0 4797 4797 4797 4760 4760 4760 4725 4725 4689 4689 4689 4689 4689 4689 4689 4689 4689 4689 4725 4725 4725 4725 4725 4689 4689 4689 4689 4689 4689 4689 4655 4655 4655 4655 4655 4655 4655 4655 4655 4655 4655 4655 4655 4655 4620 4620 4655 4655 4655 4655 4655 4655 4620 4620 4620 4655 4655 4655 4655 4655 4655 4655 4655 4655 4655 4620 4620 4620 4620 4620 4655 4655 4655 4655 4655 4655 4655 4655 4655 4655 4655 4655 4655 4655 4655 4655 4655 4655 4655 4655 4655 4655 4689 4689 4689 4689 4689 4725 4725 4725 4725 4725 4725 4725 0 0 0 5661 5661 5661 5661 5661 5661 5661 5661 5661 5661 5661 5661 5661 5661 5661 5713 5713 5713 5713 5713 5713 5713 5713 5713 5713 5713 5713 5713 5713 5713 5713 5713 5713 5713 5713 5713 5713 5713 5713 5713 5713 5713 5713 0 0 0 0 0 0 0 0 0 0 0 0 0 0 0 0 0 0 0 0 0 0 0 0 0 0 0 0 0 0 0 0 0 0 0 0 0 0 0 0 0 0 0 0 0 0 0 0 0 0 0 0 0 0 0 0 0 0 0 0 0 0 0 0 0 0 0 0 0 0 0 0 0 0 0 0 0 0 0 0 0 0 0 0 0 0 0 0 0 0 0 0 0 0 0 0 0 0 0 0 0 0 0 0 0 0 0 0 0 0 0 0 0 0 0 0 0 0 0 0 0 0 0 0 0 0 0 0 0 0 0 65535 65535 65535 65535 65535 65535 57130 33075 25137 22443 20947 21670 22443 23275 24170 28565 41895 41895 41895 36966 31421 34912 34912 33075 36966
    0 0 0 0 0 0 0 0 0 0 0 0 0 0 0 0 0 0 0 0 0 0 0 0 0 0 0 0 0 0 0 0 0 4834 4834 4909 4948 4948 4987 4987 4987 4948 4948 4948 4948 4987 4987 4987 5027 5067 5151 5193 5236 5236 5193 5193 5151 5151 5067 4948 0 0 0 4909 4909 4909 4909 4909 4909 4948 4948 4948 4948 4948 4948 0 0 0 0 0 0 0 0 0 0 0 0 0 0 0 0 0 0 0 0 0 0 0 0 0 0 0 0 0 0 0 0 0 0 0 4394 4394 4394 4394 4394 4394 4488 4760 5067 5193 5193 5193 5193 5151 5151 5193 5193 5193 5193 5193 0 0 0 0 4725 4725 4871 4948 5027 5109 5193 5193 5193 5193 5193 0 0 0 0 0 4394 4394 4394 4394 4394 4394 4394 0 0 0 0 0 0 0 0 0 0 4488 4488 4488 4488 4488 4488 4488 4456 4456 4488 4521 4521 4521 4521 4521 4521 4488 4488 4488 4488 4488 4488 4488 4488 4488 4488 4488 4488 4521 4521 4521 4521 4521 4521 4521 0 0 0 0 4797 4797 4797 4797 4760 4725 4725 4725 4689 4689 4689 4689 4689 4689 4689 4689 4689 4725 4725 4725 4725 4725 4725 4725 4725 4689 4689 4689 4689 4689 4689 4655 4655 4655 4655 4655 4655 4655 4655 4655 4655 4655 4655 4655 4620 4620 4620 4620 4620 4620 4620 4620 4620 4620 4620 4620 4655 4655 4655 4655 4655 4655 4655 4655 4655 4620 4620 4620 4620 4620 4655 4655 4655 4655 4655 4655 4655 4655 4655 4655 4655 4655 4655 4655 4655 4655 4655 4655 4655 4655 4655 4689 4689 4689 4689 4689 4689 4725 4725 4725 4760 4760 4725 4725 0 0 0 5661 5661 5661 5661 5661 5661 5661 5661 5661 5661 5661 5661 5661 5661 5661 5713 5713 5713 5713 5713 5713 5713 5713 5713 5713 5713 5713 5713 5713 5713 5713 5713 5713 5713 5713 5713 5713 5713 5713 5713 5713 5713 5713 0 0 0 0 0 0 0 0 0 0 0 0 0 0 0 0 0 0 0 0 0 0 0 0 0 0 0 0 0 0 0 0 0 0 0 0 0 0 0 0 0 0 0 0 0 0 0 0 0 0 0 0 0 0 0 0 0 0 0 0 0 0 0 0 0 0 0 0 0 0 0 0 0 0 0 0 0 0 0 0 0 0 0 0 0 0 0 0 0 0 0 0 0 0 0 0 0 0 0 0 0 0 0 0 0 0 0 0 0 0 0 0 0 0 0 0 0 0 0 0 0 0 0 0 0 0 0 0 0 0 0 65535 65535 65535 65535 65535 65535 57130 41895 29925 25137 24170 23275 25137 27323 29925 34912 41895 41895 41895 39276 36966 39276 39276 39276 41895</data></DepthMat>
</opencv_storage>
