<?xml version="1.0"?>
<opencv_storage>
<DepthMat type_id="opencv-matrix">
  <rows>42</rows>
  <cols>512</cols>
  <dt>w</dt>
  <data>
    0 0 0 0 0 0 0 0 0 0 0 0 0 0 0 0 0 0 0 0 0 0 0 0 0 0 0 0 0 0 0 0 0 0 0 6685 6685 6685 6685 6685 6685 6685 6685 6685 6685 6757 6757 6757 6757 6757 6757 6757 6757 6757 6615 6478 6412 6412 6347 6347 6347 6347 6347 6284 6284 6284 6284 6284 6222 6284 6284 6284 6284 6284 6222 6161 6161 6161 6161 6161 6161 6161 6101 6101 6101 0 0 0 0 0 5610 5610 5610 5610 5610 5610 5610 5610 5610 5610 5610 5610 5610 5610 5610 5610 5610 5610 5610 5610 5610 5610 5610 5610 5661 5661 5661 5661 5661 5661 5661 5661 5713 5713 5713 5713 5713 5713 5713 5713 5713 5713 5713 5713 5713 5713 5713 5661 5661 5661 5661 5661 5661 5661 5713 5765 5818 5873 5873 5873 5818 5818 5765 5713 5713 5661 5661 5661 5713 5713 5713 5765 5765 5818 5873 5873 5928 5928 5985 5985 5985 6042 6042 6042 6042 6042 6042 6101 6101 6101 6161 6161 6161 6161 6161 6161 6161 6161 6161 6161 6161 6161 6161 6101 6101 6101 6101 6101 6101 6101 6101 6101 6101 6101 6101 6101 6101 6101 6101 6042 0 0 0 0 0 0 0 0 6478 6478 6478 6478 6478 6478 6478 6478 6478 6478 6478 6546 6546 6546 6546 6615 6615 6615 6615 6615 6615 6615 6615 6615 6685 6685 6685 6685 6615 6615 6615 6615 6546 6546 6615 6615 6615 6615 6615 6615 6546 6546 6546 6546 6546 6546 6546 6546 6546 6546 6546 6546 6546 6546 6615 6615 6546 6546 6546 6546 6546 6546 6546 6546 6546 6546 6615 6615 6615 6615 6615 6685 6685 6685 6757 6757 6757 6757 6830 6830 6830 6905 6830 6830 6830 6757 6757 6757 6685 6685 6685 6685 6685 6685 6685 6685 6685 6685 6905 6905 6905 6905 6905 6905 6982 6982 7061 7061 7141 7141 7061 6982 6982 6982 6982 6905 6905 6905 6905 0 0 7141 7223 7223 7223 7223 7223 0 0 0 0 7307 7307 7307 7307 7307 7307 7223 7307 7307 7307 7307 7307 7223 7223 7141 7141 7223 7307 7393 7393 7307 7307 7307 7223 7223 7223 7223 7223 7223 7223 7307 7393 7481 7571 7663 7571 7571 7571 0 0 0 0 0 0 0 0 0 0 0 0 0 0 0 0 0 0 0 0 7141 7141 7223 7307 7307 7481 7481 7571 7571 7571 7481 7481 7481 7481 7481 7481 7481 7393 7393 7393 7481 7481 7481 7481 7481 7571 7571 7571 7571 7571 7571 7571 7571 7571 7571 7571 7571 7571 7571 7571 7571 7571 7663 7663 7663 7758 7758 7758 7855 7954 7954 8056 8056 8056 7954 7954 7855 0 0 0 0 0 0 0 0 0 0 0 65535 65535 65535 65535 65535 65535 65535 65535 65535 0 0 0 0 0 0 0 0 0 0 0 0 0 0 65535 65535 65535 65535 65535 65535 0 0 0 0 0 0 0 0
    0 0 0 0 0 0 0 0 0 0 0 0 0 0 0 0 0 0 0 0 0 0 0 0 0 0 0 0 0 0 0 0 0 0 0 6685 6685 6685 6685 6685 6685 6685 6757 6757 6757 6757 6757 6830 6830 6830 6830 6830 6830 6757 6685 6546 6412 6412 6347 6347 6347 6347 6347 6347 6284 6284 6284 6284 6284 6284 6284 6284 6284 6222 6222 6161 6161 6161 6161 6161 6161 6161 6101 6101 6101 0 0 0 0 0 5610 5610 5610 5610 5610 5610 5610 5610 5610 5610 5610 5610 5610 5610 5610 5610 5610 5610 5610 5610 5610 5610 5661 5661 5661 5661 5661 5661 5661 5713 5713 5713 5713 5713 5713 5713 5713 5713 5713 5713 5713 5713 5713 5713 5713 5713 5713 5661 5661 5661 5661 5661 5661 5713 5765 5818 5873 5873 5873 5818 5818 5765 5765 5713 5713 5661 5661 5661 5713 5713 5713 5713 5765 5765 5818 5873 5873 5928 5928 5928 5928 5985 5985 5985 5985 5985 5985 6042 6042 6101 6101 6161 6161 6161 6161 6161 6161 6101 6101 6101 6101 6101 6101 6101 6101 6101 6101 6101 6101 6101 6101 6101 6101 6101 6101 6101 6101 6101 6042 6042 0 0 0 0 0 0 0 0 6478 6478 6478 6478 6478 6478 6412 6412 6478 6478 6478 6546 6546 6546 6615 6615 6615 6615 6615 6615 6615 6615 6615 6615 6615 6685 6685 6615 6615 6615 6546 6546 6546 6546 6615 6615 6615 6615 6615 6615 6546 6546 6546 6546 6546 6546 6546 6546 6546 6546 6546 6546 6546 6546 6546 6546 6546 6546 6546 6546 6478 6478 6478 6546 6546 6546 6546 6546 6615 6615 6615 6615 6685 6685 6685 6685 6757 6757 6757 6830 6830 6905 6830 6830 6757 6757 6757 6757 6685 6685 6685 6685 6685 6685 6685 6685 6685 6685 6905 6905 6905 6905 6830 6905 6905 6905 6982 7061 7141 0 6982 6982 6982 6982 6982 6905 6905 6905 0 0 0 0 0 0 0 0 0 0 0 0 7481 7393 7393 7393 7393 7307 7307 7307 7307 7307 7307 7307 7307 7307 7223 7223 7141 7223 7307 7393 7393 7307 7307 7307 7307 7223 7223 7223 7223 7223 7223 7393 7481 7571 7663 7663 7663 7571 7571 0 0 0 0 0 0 0 0 0 0 0 0 0 0 0 0 0 7141 7141 7141 7141 7141 7223 7307 7393 7481 7481 7571 7481 7481 7481 7481 7481 7481 7481 7481 7481 7393 7393 7393 7393 7393 7481 7481 7481 7481 7481 7481 7481 7481 7571 7571 7571 7571 7571 7571 7571 7571 7571 7571 7571 7571 7663 7663 7663 7663 7758 7758 7855 7954 7954 7954 8056 8056 7954 7954 7855 7855 0 0 0 0 0 0 0 0 0 0 0 0 0 0 0 0 0 0 0 0 0 0 0 0 0 0 0 0 0 0 0 0 0 0 0 0 0 65535 65535 65535 65535 65535 65535 0 0 0 0
    0 0 0 0 0 0 0 0 0 0 0 0 0 0 0 0 0 0 0 0 0 0 0 0 0 0 0 0 0 0 0 0 0 0 0 6685 6685 6685 6685 6757 6757 6757 6757 6757 6757 6830 6830 6830 6830 6830 6830 6830 6830 6830 6757 6615 6412 6412 6347 6347 6347 6347 6347 6347 6347 6284 6284 6284 6284 6284 6284 6284 6284 6222 6222 6161 6161 6161 6161 6161 6161 6161 6161 6101 6101 0 0 0 0 0 5610 5610 5610 5610 5610 5610 5610 5610 5610 5610 5610 5610 5610 5610 5610 5610 5610 5610 5610 5610 5661 5661 5661 5713 5713 5713 5713 5713 5713 5713 5713 5713 5713 5713 5713 5713 5713 5713 5713 5765 5765 5765 5765 5765 5713 5713 5713 5713 5661 5661 5661 5661 5661 5713 5765 5818 5873 5873 5873 5818 5765 5765 5713 5713 5713 5661 5661 5661 5713 5713 5713 5713 5713 5765 5765 5818 5818 5873 5873 5873 5928 5928 5928 5928 5928 5928 5928 5985 5985 6042 6101 6161 6161 6161 6161 6161 6161 6101 6101 6101 6101 6101 6101 6101 6101 6101 6101 6101 6101 6101 6101 6101 6101 6101 6101 6101 6101 6101 6042 6042 0 0 0 0 0 0 0 0 6478 6478 6478 6412 6412 6412 6347 6412 6412 6478 6478 6546 6546 6546 6615 6615 6615 6615 6615 6615 6615 6615 6615 6615 6615 6615 6615 6615 6546 6546 6546 6546 6546 6546 6615 6615 6615 6615 6615 6615 6546 6546 6546 6546 6546 6546 6546 6546 6546 6546 6546 6546 6546 6546 6546 6546 6546 6546 6546 6478 6478 6478 6478 6478 6478 6478 6546 6478 6478 6546 6546 6615 6615 6685 6685 6685 6757 6757 6757 6830 6830 6905 6830 6830 6830 6757 6757 6757 6685 6685 6685 6685 6685 6685 6685 6685 6685 6685 0 0 6830 6830 6830 6830 6905 6905 6905 6982 7141 0 6982 6982 6982 6982 6982 6905 6905 0 0 0 0 0 0 0 0 0 0 0 0 0 7481 7481 7481 7481 7481 7393 7393 7307 7307 7307 7307 7307 7307 7307 7307 7223 7223 7223 7307 7393 7393 7307 7307 7307 7307 7307 7223 7223 7223 7223 7307 7393 7481 7663 7663 7663 7663 7663 7571 0 0 0 0 0 0 0 0 7481 7393 7307 7307 7307 7223 7223 7223 7223 7223 7223 7223 7223 7141 7307 7393 7481 7481 7571 7481 7481 7481 7481 7481 7481 7481 7481 7481 7481 7393 7393 7393 7393 7393 7393 7481 7481 7481 7481 7481 7481 7481 7481 7481 7481 7481 7571 7571 7571 7571 7571 7571 7571 7571 7571 7571 7663 7663 7663 7758 7758 7855 7954 7954 7954 7954 7954 7855 7855 7855 0 0 0 0 0 0 0 0 0 0 0 0 0 0 0 0 0 0 0 0 0 0 0 0 0 0 0 0 0 0 0 0 0 0 0 0 0 65535 65535 65535 65535 65535 65535 65535 0 0 0
    0 0 0 0 0 0 0 0 0 0 0 0 0 0 0 0 0 0 0 0 0 0 0 0 0 0 0 0 0 0 0 0 0 0 0 6685 6685 6685 6757 6757 6757 6757 6757 6830 6830 6830 6905 6905 6905 6905 6905 6905 6905 6905 6830 6685 6546 6412 6347 6347 6347 6347 6347 6347 6347 6284 6284 6284 6284 6284 6284 6284 6284 6284 6222 6161 6161 6161 6161 6161 6161 6161 6161 0 0 0 0 0 0 0 5661 5661 5661 5610 5610 5610 5610 5610 5610 5610 5610 5610 5610 5561 5561 5561 5610 5610 5610 5661 5661 5713 5713 5713 5713 5713 5713 5713 5713 5765 5765 5765 5765 5765 5713 5713 5713 5713 5713 5765 5765 5765 5765 5765 5765 5713 5713 5713 5713 5713 5713 5713 5713 5713 5765 5818 5818 5873 5818 5818 5765 5713 5713 5713 5661 5661 5661 5661 5661 5713 5713 5713 5713 5713 5713 5765 5765 5818 5818 5873 5873 5873 5873 5873 5873 5873 5928 5928 5928 5985 6042 6101 6161 6161 6161 6161 6101 6101 6042 6042 6042 6042 6042 6042 6042 6042 6042 6101 6101 6101 6101 6101 6101 6101 6101 6101 6042 6042 6042 6042 0 0 0 0 0 0 0 0 6478 6478 6412 6347 6347 6347 6284 6347 6412 6478 6478 6546 6546 6546 6615 6685 6685 6615 6615 6615 6615 6615 6615 6615 6615 6615 6546 6546 6546 6546 6478 6478 6546 6546 6615 6615 6615 6615 6615 6546 6546 6546 6546 6546 6546 6546 6546 6546 6546 6546 6546 6546 6546 6546 6546 6546 6546 6478 6478 6478 6478 6412 6412 6412 6478 6478 6412 6412 6412 6412 6478 6546 6615 6615 6685 6685 6757 6757 6830 6830 6830 6905 6905 6830 6830 6830 6757 6757 6685 6685 6685 6685 6685 6685 6685 6685 6685 6685 0 0 0 6830 6830 6830 6830 6830 6830 6830 0 0 7061 6982 6982 6982 6982 6905 0 0 0 0 0 0 0 0 0 0 0 0 0 0 7481 7481 7571 7571 7571 7571 7481 7481 7481 7393 7393 7393 7393 7307 7307 7307 7223 7223 7307 7393 7393 7393 7307 7307 7307 7307 7307 7223 7223 7223 7307 7393 7571 7663 7663 7663 7663 7663 7663 0 0 0 0 0 0 0 0 7481 7307 7307 7307 7307 7223 7223 7223 7223 7223 7223 7223 7223 7223 7393 7481 7571 7571 7571 7481 7481 7481 7481 7481 7481 7481 7481 7481 7393 7393 7393 7393 7393 7393 7393 7393 7393 7481 7481 7481 7481 7481 7481 7481 7481 7481 7481 7481 7481 7481 7571 7571 7571 7571 7571 7571 7571 7663 7663 7663 7758 7855 7855 7954 7954 7954 7855 7855 7855 7855 7758 0 0 0 0 0 0 0 0 0 0 0 0 0 0 0 0 0 0 0 0 0 0 0 0 0 0 0 0 0 0 0 0 0 0 0 0 65535 65535 65535 65535 65535 65535 65535 0 0 0
    0 0 0 0 0 0 0 0 0 0 0 0 0 0 0 0 0 0 0 0 0 0 0 0 0 0 0 0 0 0 0 0 0 0 0 6685 6685 6757 6757 6757 6757 6757 6830 6830 6830 6905 6905 6905 6905 6905 6905 6905 6905 6905 6830 6757 6615 6546 6412 6412 6412 6347 6347 6347 6347 6347 6284 6284 6284 6284 6284 6284 6284 6284 6222 0 6161 6161 6161 6161 6161 6161 0 0 0 0 0 0 0 5818 5713 5661 5661 5661 5661 5610 5610 5610 5610 5610 5610 5610 5610 5561 5610 5610 5610 5610 5661 5661 5713 5713 5765 5765 5765 5765 5765 5765 5765 5765 5765 5765 5765 5765 5765 5713 5713 5713 5713 5765 5765 5765 5765 5765 5765 5765 5765 5713 5713 5713 5713 5713 5713 5765 5765 5818 5818 5818 5818 5765 5713 5713 5713 5661 5661 5661 5661 5661 5661 5661 5661 5661 5661 5713 5713 5713 5765 5765 5818 5818 5818 5818 5818 5818 5818 5818 5873 5873 5873 5928 5985 6042 6042 6101 6101 6042 6042 6042 5985 5985 5985 5985 5985 6042 6042 6042 6042 6042 6042 6042 6042 6042 6042 6042 6042 6042 6042 6042 5985 5985 0 0 0 0 0 0 0 0 6478 6478 6347 6284 6284 6222 6222 6222 6222 0 0 0 0 0 6685 6685 6685 6615 6615 6615 6615 6615 6615 6615 6546 6546 6546 6478 6478 6478 6478 6478 6546 6546 6615 6615 6615 6615 6615 6546 6546 6546 6546 6546 6546 6546 6546 6546 6546 6546 6546 6546 6546 6546 6546 6478 6478 6478 6478 6478 6412 6412 6412 6412 6412 6412 6347 6347 6347 6347 6412 6478 6546 6615 6685 6685 6757 6757 6830 6830 6905 6905 6905 6905 6905 6830 6830 6757 6757 6757 6685 6685 6685 6685 6685 6685 6685 6685 0 0 0 0 0 0 0 0 0 0 0 0 7141 7141 7141 7141 7141 0 0 0 0 0 0 0 0 0 0 0 0 0 0 0 7481 7571 7571 7571 7571 7571 7571 7571 7571 7481 7393 7393 7393 7307 7307 7307 7307 7307 7393 7393 7393 7393 7307 7307 7307 7307 7307 7307 7307 7307 7307 7481 7571 7663 7663 7663 7663 7663 7758 7758 7758 7758 7758 7663 7663 0 0 7481 7307 7307 7307 7307 7307 7223 7223 7223 7223 7223 7223 7223 7307 7393 7481 7481 7571 7571 7481 7481 7481 7481 7481 7481 7481 7481 7481 7481 7393 7393 7393 7393 7393 7393 7393 7393 7393 7393 7393 7393 7481 7481 7481 7481 7481 7481 7481 7481 7481 7571 7571 7571 7571 7571 7571 7571 7571 7663 7663 7758 7758 7855 7855 7855 7855 7855 7855 7855 7855 7758 7758 0 0 0 0 0 0 0 0 0 0 0 0 0 0 0 0 0 0 0 0 0 0 0 0 0 0 0 0 0 0 0 0 0 0 0 65535 65535 65535 65535 65535 65535 65535 0 0 0
    0 0 0 0 0 0 0 0 0 0 0 0 0 0 0 0 0 0 0 0 0 0 0 0 0 0 0 0 0 0 0 0 0 0 0 0 6685 6757 6757 6757 6830 6830 6830 6905 6905 6905 6905 6905 6982 6982 6982 6905 6905 6905 6905 6830 6685 6615 6478 6478 6412 6412 6347 6347 6347 6347 6347 6284 6284 6284 6284 6284 6284 6284 6222 0 0 0 0 0 0 0 0 0 0 0 0 0 5818 5818 5765 5713 5713 5661 5661 5610 5610 5610 5610 5610 5610 5610 5610 5610 5610 5610 5610 5661 5713 5713 5765 5765 5765 5765 5765 5765 5765 5765 5765 5765 5765 5765 5765 5765 5765 5713 5713 5713 5713 5713 5713 5765 5765 5765 5765 5765 5765 5765 5713 5713 5713 5713 5713 5765 5765 5765 5765 5765 5765 5713 5713 5713 5661 5661 5661 5661 5661 5661 5661 5661 5661 5661 5661 5661 5661 5661 5713 5713 5765 5765 5818 5818 5818 5818 5818 5818 5818 5818 5818 5873 5928 5928 5985 5985 6042 5985 5985 5985 5985 5928 5985 5985 5985 5985 6042 6042 6042 6042 6042 6101 6101 6101 6101 6101 6042 6042 6042 6042 5985 5985 0 0 0 0 0 0 0 0 0 0 6042 6101 6101 6101 6101 6101 6042 0 0 0 0 0 0 6685 6615 6615 6615 6615 6546 6546 6546 6546 6546 6478 6478 6478 6412 6412 6478 6412 6478 6546 6615 6615 6615 6615 6615 0 6546 6546 6546 6546 6546 6546 6546 6546 6546 6546 6478 6478 6478 6478 6478 6478 6478 6478 6478 6478 6412 6412 6347 6347 6347 6347 6347 6347 6284 6347 6412 6478 6546 6615 6685 6685 6757 6757 6757 6905 6982 6905 6905 6905 6905 6905 6905 6830 6830 6830 6757 6685 6685 6685 6685 6615 6615 0 0 0 0 0 0 0 0 0 0 0 0 0 0 0 0 0 0 0 0 0 0 0 0 0 0 0 0 0 0 0 0 0 7481 7571 7571 7571 7571 7571 7571 7571 7571 7571 7481 7481 7393 7393 7307 7307 7307 0 7307 7393 7393 7393 7393 7393 7393 7393 7393 7307 7307 7307 7393 7481 7571 7663 7663 7663 7663 7758 7758 7758 7758 7758 7663 7663 7571 7481 7481 7481 7307 7307 7393 7393 7307 7307 7307 7307 7307 7223 7307 7307 7307 7393 7481 7481 7571 7571 7571 7481 7481 7481 7481 7481 7481 7481 7481 7481 7393 7393 7393 7393 7393 7307 7307 7307 7307 7393 7393 7393 7393 7481 7481 7481 7481 7481 7481 7481 7571 7571 7571 7571 7571 7571 7571 7571 7571 7663 7663 7758 7758 7758 7855 7855 7855 7855 7855 7855 7855 7855 7855 7954 0 0 0 0 0 0 0 0 0 0 0 0 0 0 0 0 0 0 0 0 0 0 0 0 0 0 0 0 0 0 0 0 0 0 65535 65535 65535 65535 65535 65535 65535 0 0 0
    0 0 0 0 0 0 0 0 0 0 0 0 0 0 0 0 0 0 0 0 0 0 0 0 0 0 0 0 0 0 0 0 0 0 0 0 6685 6757 6830 6830 6830 6830 6905 6905 6905 6905 6905 6905 6982 6982 6982 6982 6905 6905 6905 6830 6757 6685 6615 6546 6478 6412 6347 6412 6347 6347 6347 0 6284 6284 6284 6284 6284 6284 6222 0 0 0 0 0 0 0 0 0 0 0 0 5818 5818 5818 5765 5765 5713 5713 5661 5661 5661 5610 5610 5610 5610 5610 5610 5610 5610 5661 5661 5713 5713 5765 5765 5818 5818 5765 5765 5765 5765 5765 5765 5765 5765 5765 5765 5765 5765 5713 5713 5713 5713 5713 5713 5713 5713 5765 5765 5765 5765 5765 5765 5765 5713 5713 5713 5765 5765 5765 5765 5765 5713 5713 5713 5661 5661 5661 5661 5661 5661 5661 5661 5661 5661 5661 5661 5661 5661 5661 5661 5713 5713 5765 5765 5765 5765 5818 5818 5818 5818 5818 5818 5818 5873 5873 5873 5928 5928 5928 5928 5928 5928 5928 5928 5928 5985 5985 5985 6042 6042 6042 6101 6101 6101 6101 6101 6101 6101 6042 6042 0 0 0 0 0 0 0 0 0 0 0 0 0 6042 6042 6042 6042 6042 6042 6042 0 0 0 0 0 0 0 0 0 0 6222 6222 6412 6478 6478 6478 6478 6478 6478 6412 6412 6478 6412 6412 0 0 0 0 0 0 0 0 0 0 0 0 0 0 0 0 0 6412 6478 6478 6478 6478 6478 6478 6478 6478 6478 6412 6412 6347 6347 6347 6347 6347 6347 6284 6347 6412 6478 6546 6615 6757 6757 6757 0 0 6982 6982 6982 6982 6982 6905 6905 6982 6982 6982 6982 6982 6615 6615 6615 6615 6615 6615 0 0 0 0 0 0 0 0 0 0 0 0 0 0 0 0 0 0 0 0 0 0 0 0 0 0 0 0 0 0 0 0 0 7571 7571 7571 7571 7571 7571 7571 7571 7571 7571 7571 7481 7393 7393 7307 7307 7307 0 7307 7393 7393 7393 7393 7393 7393 7393 7393 7393 7393 7307 7393 7481 7571 7663 7663 7663 7758 7758 7758 7758 7758 7663 7663 7663 7571 7571 7481 7481 7393 7393 7393 7393 7393 7393 7393 7307 7307 7307 7307 7307 7393 7393 7481 7571 7571 7571 7571 7571 7481 7481 7481 7481 7481 7481 7481 7481 7481 7393 7393 7393 7307 7307 7307 7307 7307 7307 7307 7393 7393 7481 7481 7481 7481 7481 7481 7481 7571 7571 7571 7571 7571 7571 7571 7571 7571 7663 7663 7758 7758 7758 7758 7758 7758 7758 7758 7855 7855 7855 7954 8056 8056 0 0 0 0 0 0 0 0 0 0 0 0 0 0 0 0 0 0 0 0 0 0 0 0 0 0 0 0 0 0 0 0 0 65535 65535 65535 65535 65535 65535 65535 0 0 0
    0 0 0 0 0 0 0 0 0 0 0 0 0 0 0 0 0 0 0 0 0 0 0 0 0 0 0 0 0 0 0 0 0 0 0 6830 6757 6830 6830 6830 6830 6830 6905 6905 6905 6905 6905 6905 6982 6982 6982 6982 6905 6905 6905 6830 6757 6757 6685 6615 6546 6478 6412 6347 6347 6284 6222 6222 6161 6222 6222 6284 6284 6284 0 0 0 0 0 0 0 0 0 0 0 0 0 5818 5818 5818 5818 5765 5765 5713 5713 5713 5713 5713 5713 5661 5661 5610 5610 5661 5661 5661 5713 5713 5765 5765 5818 5818 5818 5818 5818 5765 5765 5765 5765 5765 5765 5765 5765 5765 5765 5765 5713 5713 5713 5661 5661 5713 5713 5713 5713 5765 5765 5765 5713 5765 5765 5765 5765 5765 5713 5713 5713 5713 5713 5661 5661 5661 5661 5661 5661 5661 5661 5661 5661 5661 5661 5661 5661 5661 5661 5661 5661 5661 5713 5713 5713 5765 5765 5765 5765 5818 5818 5818 5818 5818 5818 5818 5818 5818 5873 5873 5873 5873 5928 5928 5928 5928 5928 5985 5985 6042 6042 6042 6101 6101 6101 6101 6101 6101 6101 6101 6101 0 0 0 0 0 0 0 0 0 0 0 0 0 6042 6042 6042 6042 6042 6042 0 0 0 0 0 0 0 0 0 0 6222 6222 6222 6222 6222 6284 6412 6412 6478 6478 6478 6478 6478 6478 6412 0 0 0 0 0 0 0 0 0 0 0 0 0 0 0 0 0 6412 6478 6478 6478 6478 6478 6478 6478 6478 6478 6412 6412 6412 6347 6347 6347 6347 6347 6347 6284 6412 6478 6546 6615 6757 6757 6757 0 0 6982 6982 6982 6982 6982 6905 6905 6905 6905 6905 6905 6905 6830 0 0 0 0 0 0 0 0 0 0 0 0 0 0 0 0 0 0 0 0 0 0 0 0 0 0 0 0 0 0 0 0 0 0 0 0 0 0 7571 7571 7571 7571 7571 7571 7571 7571 7571 7571 7571 7571 7481 7393 7393 7307 7223 0 7307 7393 7393 7481 7481 7481 7481 7481 7481 7481 7393 7393 7481 7571 7571 7663 7663 7663 7663 7758 7758 7758 7663 7663 7663 7571 7571 7481 7481 7393 7393 7393 7481 7481 7393 7393 7393 7393 7393 7393 7393 7393 7481 7481 7481 7571 7571 7571 7571 7571 7481 7481 7481 7481 7481 7481 7481 7481 7481 7481 7393 7393 7307 7307 7307 7223 7223 7223 7307 7307 7393 7393 7481 7481 7481 7481 7481 7481 7571 7571 7571 7571 7571 7571 7571 7571 7571 7663 7663 7663 7758 7758 7758 7758 7758 7758 7758 7758 7855 7855 7954 8056 8056 0 0 0 0 0 0 0 0 0 0 0 0 0 0 0 0 0 0 0 0 0 0 0 0 0 0 0 0 0 0 0 0 0 65535 65535 65535 65535 65535 65535 65535 0 0 0
    0 0 0 0 0 0 0 0 0 0 0 0 0 0 0 0 0 0 0 0 0 0 0 0 0 0 0 0 0 0 0 0 0 6830 6830 6830 6830 6830 6830 6830 6830 6830 6830 6905 6905 6905 6905 6905 6905 6982 6982 6982 6905 6905 6830 6830 6757 6757 6685 6685 6546 6478 6412 6347 6284 6222 6222 6222 6161 6161 6161 0 0 0 0 0 0 0 0 0 0 0 0 0 0 0 0 5818 5818 5818 5818 5818 5765 5765 5765 5713 5713 5713 5713 5713 5713 5661 5661 5713 5713 5713 5765 5765 5765 5765 5818 5818 5818 5818 5818 5818 5765 5765 5765 5765 5765 5765 5765 5765 5765 5765 5713 5713 5713 5661 5661 5661 5661 5713 5713 5713 5713 5713 5713 5713 5713 5713 5713 5713 5713 5713 5713 5713 5661 5661 5661 5661 5661 5661 5661 5661 5661 5661 5661 5661 5661 5661 5661 5661 5610 5661 5661 5661 5661 5713 5713 5713 5765 5765 5765 5765 5765 5765 5765 5765 5765 5765 5765 5765 5765 5818 5818 5873 5928 5928 5928 5928 5928 5928 5985 6101 6161 6222 6222 6222 6222 6161 6161 6161 6101 6101 6101 0 0 0 0 0 0 0 0 0 0 0 0 5561 5561 5561 5561 5561 0 0 0 0 0 0 0 0 0 0 0 0 6222 6222 6222 6222 6222 6222 6347 6412 6478 6478 6478 6478 6478 6478 0 0 0 0 0 0 0 0 0 0 0 0 0 0 0 0 0 0 6412 6478 6478 6478 6478 6478 6478 6478 6478 6478 6412 6412 6412 6347 6347 6347 6347 6347 6347 6347 6412 6478 6546 6615 6757 6830 6757 0 0 6982 6982 6982 6982 6905 6905 6905 6905 6905 6905 6905 6830 6757 0 0 0 0 0 0 0 0 0 0 0 0 0 0 0 0 0 0 0 0 0 0 0 0 0 0 0 0 0 0 0 0 0 0 0 0 0 0 7571 7571 7571 7571 7571 7571 7571 7571 7571 7571 7571 7571 7571 7481 7393 7393 7223 0 7307 7393 7481 7481 7481 7481 7571 7571 7571 7571 7481 7481 7481 7571 7663 7663 7663 7663 7663 7663 7758 7663 7663 7663 7663 7571 7571 7481 7481 7393 7393 7571 7571 7571 7571 7481 7481 7481 7481 7481 7481 7481 7481 7571 7571 7571 7571 7571 7571 7571 7571 7481 7481 7481 7481 7481 7481 7481 7481 7481 7393 7393 7307 7307 7223 7223 7223 7223 7307 7307 7393 7393 7481 7481 7481 7481 7481 7481 7571 7571 7571 7571 7571 7571 7571 7571 7571 7663 7663 7663 7663 7663 7663 7663 7663 7663 7663 7758 7758 7855 7954 8056 8056 0 0 0 0 0 0 0 0 0 0 0 0 0 0 0 0 0 0 0 0 0 0 0 0 0 0 0 0 0 0 0 0 0 0 0 0 0 0 0 0 0 0 0
    0 0 0 0 0 0 0 0 0 0 0 0 0 0 0 0 0 0 0 0 0 0 0 0 0 0 0 0 0 0 0 0 0 6830 6830 6830 6830 6830 6830 6830 6830 6830 6830 6830 6830 6905 6905 6905 6905 6905 6905 6905 6905 6905 6830 6830 6757 6757 6757 6685 6615 6478 6347 6347 6284 6222 6222 6222 6161 6161 6161 0 0 0 0 0 0 0 0 0 0 0 0 0 0 0 0 5818 5818 5818 5818 5818 5765 5765 5765 5713 5713 5713 5713 5713 5713 5713 5765 5765 5765 5765 5765 5765 5765 5765 5818 5818 5818 5818 5818 5818 5818 5818 5818 5765 5765 5765 5765 5765 5765 5713 5713 5713 5713 5661 5661 5661 5661 5661 5661 5713 5713 5713 5713 5713 5713 5713 5713 5713 5713 5713 5713 5661 5661 5661 5661 5661 5661 5661 5661 5661 5661 5661 5661 5661 5661 5661 5661 5661 5610 5610 5661 5661 5661 5661 5661 5713 5713 5713 5713 5765 5765 5765 5765 5765 5765 5765 5765 5765 5765 5818 5818 5873 5928 5928 5928 5928 5928 5928 5928 6478 6478 6412 6347 6284 6284 6222 6222 6222 6161 6161 6222 6284 0 0 0 0 0 0 0 0 0 0 5561 5561 5561 5561 5561 5561 5561 0 0 0 0 0 0 0 0 0 0 6347 6347 6284 6284 6284 6284 6284 6347 6412 6478 6478 6478 6478 6478 6478 0 0 0 0 0 0 0 0 0 0 0 0 0 6685 6685 6685 6685 6685 6412 6412 6412 6412 6478 6478 6478 6478 6478 6478 6412 6412 6412 6347 6347 6347 6347 6347 6347 6347 6412 6478 6546 6615 6830 6830 6830 0 0 7061 6982 6982 6905 6905 6905 6905 6905 6830 6830 6830 6830 6757 0 0 0 0 0 0 0 0 0 0 0 0 0 0 0 0 0 0 0 0 0 0 0 0 0 0 0 0 0 0 0 0 0 0 0 0 0 0 7571 7571 7571 7571 7571 7571 7571 7571 7571 7571 7571 7571 7571 7571 7571 7571 0 0 7393 7481 7481 7481 7481 7481 7571 7571 7571 7571 7571 7571 7663 7663 7663 7663 7663 7663 7663 7663 7663 7663 7663 7663 7571 7571 7481 7481 7481 7393 7393 7571 7571 7571 7571 7571 7571 7571 7571 7571 7481 7481 7481 7481 7571 7571 7571 7571 7571 7571 7481 7481 7481 7481 7481 7481 7481 7481 7481 7393 7393 7307 7307 7307 7223 7223 7223 7223 7307 7307 7307 7393 7393 7481 7481 7481 7481 7481 7571 7571 7571 7571 7571 7571 7571 7571 7571 7571 7663 7758 7663 7663 7571 7571 7571 7571 7571 7571 7663 7663 7855 8056 8056 0 0 0 0 0 0 0 0 0 0 0 0 0 0 0 0 0 0 65535 65535 65535 65535 65535 65535 65535 0 0 0 0 0 0 0 0 0 0 0 0 0 0 0 0 0 0
    0 0 0 0 0 0 0 0 0 0 0 0 0 0 0 0 0 0 0 0 0 0 0 0 0 0 0 0 0 0 0 0 0 6830 6830 6830 6830 6830 6830 6757 6757 6757 6830 6830 6830 6830 6830 6905 6905 6905 6905 6905 6905 6905 6830 6830 6757 6757 6757 6685 6615 6478 6347 6284 6284 6222 6222 6222 6161 6161 6161 0 0 0 0 0 0 0 0 0 0 0 0 0 0 0 0 5818 5818 5818 5818 5818 5765 5765 5765 5713 5713 5713 5713 5713 5713 5713 5765 5765 5765 5765 5765 5765 5765 5765 5818 5818 5818 5818 5818 5818 5818 5818 5818 5818 5818 5765 5765 5765 5765 5713 5713 5713 5713 5661 5661 5661 5661 5661 5661 5661 5713 5713 5713 5713 5713 5713 5713 5713 5713 5713 5713 5661 5661 5661 5661 5661 5661 5661 5661 5661 5661 5661 5661 5661 5661 5661 5661 5661 5610 5610 5661 5661 5661 5661 5661 5661 5661 5713 5713 5713 5713 5765 5765 5765 5765 5765 5765 5765 5765 5765 5818 5873 5928 5928 5928 5928 5928 5928 5928 6478 6478 6478 6412 6347 6347 6284 6284 6222 6222 6222 6222 6284 6161 5985 5928 5928 5928 5928 5873 5873 0 0 5561 5561 5610 5610 5610 5610 5661 0 0 0 0 0 0 0 0 0 6347 6347 6347 6347 6347 6347 6347 6347 6347 6412 6412 6478 6478 6478 6478 6412 6347 6347 6347 6284 6284 6222 6161 0 0 0 0 0 6685 6685 6685 6685 6685 6685 6412 6412 6412 6412 6412 6615 6757 7061 6757 6685 6412 6412 6412 6412 6412 6347 6347 6347 6347 6347 6412 6478 6478 6546 6830 6830 0 0 0 7061 6982 6982 6905 6905 6905 6830 6830 6830 6830 6830 6757 6757 0 0 0 0 0 0 0 0 0 0 0 0 0 0 0 0 0 0 0 0 0 0 0 0 0 0 0 0 0 0 0 0 0 0 0 0 0 0 7571 7571 7571 7571 7571 7571 7571 7571 7571 7571 7571 7571 7571 7571 7571 0 0 0 7393 7393 7393 7393 7481 7481 7481 7571 7571 7571 7571 7571 7663 7663 7663 7663 7663 7663 7663 7663 7571 7571 7571 7571 7571 7481 7481 7481 7481 7393 7393 7571 7571 7571 7571 7571 7571 7571 7481 7481 7481 7481 7481 7481 7481 7571 7571 7571 7571 7481 7481 7481 7481 7481 7481 7481 7481 7393 7393 7393 7393 7307 7307 7307 7223 7223 7223 7307 7307 7307 7307 7393 7393 7393 7393 7481 7481 7481 7481 7571 7571 7571 7571 7571 7571 0 0 0 0 0 7571 7481 7481 7481 7481 7481 7481 7481 7571 7571 7663 8056 8056 0 0 0 0 0 0 0 65535 65535 65535 65535 65535 65535 65535 0 0 0 0 65535 65535 65535 65535 65535 65535 65535 65535 0 0 0 0 0 0 0 0 0 0 0 0 0 0 0 0 0
    0 0 0 0 0 0 0 0 0 0 0 0 0 0 0 0 0 0 0 0 0 0 0 0 0 0 0 0 0 0 0 0 0 6830 6830 6830 6830 6830 6757 6757 6757 6757 6757 6757 6757 6830 6830 6830 6830 6830 6830 6830 6830 6830 6830 6830 6757 6757 6757 6685 6615 6546 6347 6284 6284 6222 6222 6222 6161 6161 6161 0 0 0 0 0 0 0 0 0 0 0 5818 5818 5818 5818 5818 5818 5818 5818 5818 5818 5765 5765 5765 5713 5713 5713 5713 5713 5713 5713 5765 5765 5765 5765 5765 5765 5765 5765 5765 5818 5818 5873 5873 5818 5818 5818 5818 5818 5818 5765 5765 5765 5713 5713 5713 5713 5713 5661 5661 5661 5661 5661 5661 5661 5661 5661 5661 5713 5713 5713 5713 5713 5713 5713 5713 5713 5713 5661 5661 5661 5661 5661 5661 5661 5661 5661 5661 5661 5661 5661 5661 5661 5610 5610 5610 5661 5661 5661 5661 5661 5661 5661 5661 5661 5713 5713 5713 5713 5713 5713 5713 5713 5765 5765 5818 5873 5873 5928 5928 5928 5928 5928 5928 6222 6478 6478 6412 6347 6347 6347 6284 6284 6284 6284 6284 6222 6101 5985 5928 5928 5928 5873 5873 5873 5818 5561 5561 5561 5610 5610 5610 5661 5713 5765 5765 5818 5818 5818 5873 5928 5928 6101 6222 6284 6347 6347 6347 6347 6347 6347 6347 6347 6412 6412 6412 6412 6412 6412 6347 6347 6284 6284 6222 6161 6161 6101 5985 5818 5765 5765 5873 6042 6161 6222 6284 6347 6478 0 5985 6478 6615 6830 6830 7061 7061 6905 6546 6546 6478 6478 6412 6412 6347 6347 6347 6347 6347 6412 6412 6478 6757 0 0 0 0 7061 6982 6905 6905 6830 6830 6830 6757 6757 6757 6757 6757 6757 0 0 0 0 5818 5818 5818 5818 5818 5818 0 0 0 0 0 0 0 0 0 0 0 0 0 0 0 0 0 0 0 0 0 0 0 0 0 0 0 0 7663 7663 7663 7663 7571 7571 7571 7571 7571 7571 7571 7571 7571 7571 7571 0 0 0 7307 7307 7393 7393 7393 7481 7481 7481 7571 7571 7571 0 7571 7571 7571 7571 7663 7571 7571 7481 7481 7481 7481 7481 7481 7481 7481 7481 7393 7307 7307 0 0 7481 7481 7571 7571 7571 7481 7481 7481 7481 7481 7481 7481 7481 7481 7571 7481 7481 7481 7481 7481 7481 7393 7393 7393 7393 7393 7393 7307 7307 7307 7307 7307 7307 7307 7307 7307 7307 7307 7393 7393 7393 7393 7393 7481 7481 7481 7481 7481 7481 7481 7481 7481 7393 0 0 0 0 7481 7481 7481 7393 7393 7393 7393 7393 7393 7393 7307 0 0 0 0 0 0 0 0 65535 65535 65535 65535 65535 65535 65535 65535 65535 0 0 0 65535 65535 65535 65535 65535 65535 65535 65535 65535 0 0 0 0 0 0 0 0 0 0 0 0 0 0 0 0
    0 0 0 0 0 0 0 0 0 0 0 0 0 0 0 0 0 0 0 0 0 0 0 0 0 0 0 0 0 0 0 0 0 6830 6830 6830 6830 6757 6757 6757 6757 6757 6685 6757 6757 6757 6757 6830 6830 6830 6830 6757 6757 6757 6757 6757 6757 6757 6685 6685 6615 6478 6347 6284 6284 6222 6222 6222 6161 6161 6161 0 0 0 0 0 0 0 0 0 0 5818 5818 5818 5818 5818 5818 5818 5818 5818 5818 5818 5818 5765 5765 5765 5765 5713 5713 5713 5765 5765 5765 5765 5765 5765 5765 5765 5765 5765 5765 5818 5818 5873 5818 5818 5818 5818 5818 5765 5765 5713 5713 5661 5661 5661 5661 5661 5661 5713 5661 5661 5661 5661 5661 5661 5661 5661 5661 5661 5713 5713 5713 5713 5713 5713 5713 5713 5713 5713 5661 5661 5661 5661 5661 5661 5661 5661 5661 5661 5661 5661 5661 5661 5610 5610 5610 5610 5661 5661 5661 5661 5661 5661 5661 5661 5661 5713 5713 5713 5713 5713 5713 5713 5713 5765 5765 5818 5873 5873 5928 5928 5928 5985 5985 6101 6222 6347 6347 6347 6347 6347 6284 6284 6284 6284 6222 6161 6101 5985 5985 5928 5928 5873 5818 5765 5661 5610 5610 5610 5610 5661 5661 5661 5713 5765 5765 5765 5818 5818 5873 5873 5928 6042 6161 6284 6347 6347 6347 6347 6347 6347 6412 6347 6412 6412 6412 6412 6347 6347 6347 6347 6284 6222 6161 6161 6101 6042 5928 5818 5765 5765 5818 5928 5928 5985 6042 6042 5873 5818 5985 6161 6412 6546 6615 6830 7061 6830 6615 6546 6478 6478 6412 6347 6347 6284 6284 6284 6347 6347 6347 6412 6478 0 0 0 0 0 0 6905 6830 6830 6830 6830 6757 6757 6757 6757 6685 6478 5985 5985 5928 5928 5873 5873 5818 5818 5818 5818 5818 0 0 0 0 0 0 0 0 0 0 0 0 0 0 0 0 0 0 0 0 0 0 0 0 0 0 0 7663 7663 7663 7663 7571 7571 7571 7571 7571 7571 7571 7571 7571 7571 0 0 0 0 7307 7307 7307 7307 7393 7393 7481 7481 7481 7481 7481 0 0 7571 7571 7571 7663 7571 7481 7393 7393 7393 7393 7393 7481 7481 7393 7393 7393 7307 7307 0 0 7481 7481 7571 7571 7481 7481 7481 7481 7481 7481 7481 7481 7481 7481 7481 7481 7481 7481 7481 7481 7481 7393 7393 7393 7393 7393 7307 7307 7307 7307 7307 7307 7307 7307 7307 7307 7307 7307 7393 7393 7393 7393 7393 7393 7481 7481 7481 7481 7481 7481 7481 7393 7393 7307 7307 7307 0 7481 7481 7393 7393 7393 7393 7307 7307 7307 7307 7307 7307 0 0 0 0 0 0 65535 65535 65535 65535 65535 65535 65535 65535 65535 65535 65535 0 0 65535 65535 65535 65535 65535 65535 65535 65535 65535 65535 65535 65535 0 0 0 0 0 0 0 0 0 0 0 0 0
    0 0 0 0 0 0 0 0 0 0 0 0 0 0 0 0 0 0 0 0 0 0 0 0 0 0 0 0 0 0 0 0 0 6757 6830 6830 6830 6757 6757 6757 6685 6685 6685 6685 6685 6685 6685 6757 6757 6757 6757 6757 6685 6685 6685 6685 6685 6685 6685 6615 6546 6478 6347 6284 6284 6222 6222 6222 6222 6161 6161 0 0 0 0 0 0 0 0 0 5818 5818 5818 5818 5818 5818 5818 5818 5818 5818 5818 5818 5818 5818 5818 5765 5765 5765 5765 5765 5765 5765 5765 5765 5765 5765 5765 5765 5765 5765 5765 5765 5818 5818 5818 5765 5765 5713 5713 5713 5661 5661 5610 5610 5610 5610 5610 5661 5661 5661 5661 5661 5661 5661 5661 5661 5661 5661 5661 5661 5661 5661 5661 5661 5713 5713 5713 5713 5713 5713 5713 5713 5661 5661 5661 5661 5661 5661 5661 5661 5661 5661 5661 5661 5610 5610 5610 5610 5610 5610 5610 5610 5610 5610 5610 5610 5661 5661 5661 5713 5713 5713 5713 5713 5713 5765 5765 5765 5818 5873 5928 5985 5985 5985 6042 6042 6101 6161 6222 6284 6284 6284 6284 6284 6284 6222 6222 6161 6101 5985 5928 5928 5873 5873 5818 5713 5610 5610 5610 5610 5661 5661 5661 5713 5713 5765 5765 5765 5818 5818 5873 5873 5873 5985 6101 6222 6347 6347 6412 6347 6347 6347 6347 6347 6347 6347 6347 6347 6347 6347 6347 6284 6284 6222 6161 6161 6101 6042 5928 5765 5765 5765 5765 5818 5873 5873 5873 5873 5765 5713 5873 6101 6284 6412 6412 6615 6830 6830 6546 6478 6478 6412 6412 6347 6284 6284 6284 6284 6284 6284 6284 6347 6412 0 0 0 0 0 0 6830 6830 6830 6757 6757 6685 6615 6546 6412 6284 6101 5985 5928 5928 5873 5873 5873 5818 5818 5873 5873 5873 5873 5873 0 0 0 0 0 0 0 0 0 0 0 0 0 0 0 0 0 0 0 0 0 0 0 0 0 7663 7663 7663 7663 7571 7571 7571 7481 7481 7307 7141 6905 6757 6685 6685 6615 6615 6615 7223 7223 7307 7307 7307 7307 7223 7061 6757 6546 6284 6101 6042 6042 6042 5985 5985 7141 7223 7307 7307 7307 7307 7393 7393 7393 7393 7481 7393 7307 0 0 0 7481 7481 7571 7481 7481 7481 7481 7481 7393 7393 7393 7481 7481 7481 7481 7481 7481 7481 7393 7393 7393 7393 7393 7393 7393 7307 7307 7307 7307 7307 7307 7307 7393 7393 7393 7393 7393 7307 7307 7393 7393 7393 7393 7393 7393 7393 7481 7481 7481 7481 7393 7393 7393 7393 7393 7393 7393 7481 7393 7393 7393 7393 7393 7307 7307 7307 7307 7307 7307 7307 7307 0 0 0 0 65535 65535 65535 65535 65535 65535 65535 65535 65535 65535 65535 0 0 65535 65535 65535 65535 65535 65535 65535 65535 65535 65535 65535 65535 65535 65535 0 0 0 0 0 0 0 0 0 0 0
    0 0 0 0 0 0 0 0 0 0 0 0 0 0 0 0 0 0 0 0 0 0 0 0 0 0 0 0 0 0 0 0 0 6757 6830 6830 6757 6757 6757 6685 6685 6685 6615 6615 6615 6615 6615 6685 6685 6685 6685 6685 6615 6615 6615 6615 6615 6615 6615 6546 6478 6412 6347 6284 6284 6222 6222 6222 6222 6222 6222 0 0 0 0 0 0 0 0 0 5818 5818 5818 5818 5818 5818 5818 5818 5818 5818 5818 5818 5818 5818 5818 5818 5765 5765 5765 5765 5765 5765 5765 5765 5765 5765 5765 5713 5713 5713 5713 5765 5818 5765 5713 5713 5661 5661 5610 5610 5561 5561 5561 5561 5561 5561 5561 5610 5610 5661 5661 5661 5661 5661 5661 5661 5661 5661 5661 5661 5661 5661 5661 5661 5661 5661 5713 5713 5713 5713 5713 5713 5661 5661 5661 5661 5661 5661 5661 5661 5661 5661 5661 5661 5610 5610 5610 5610 5610 5610 5610 5610 5610 5610 5610 5610 5610 5661 5661 5661 5713 5713 5713 5713 5713 5765 5765 5765 5765 5873 5928 5985 5985 5985 6042 6042 6042 6101 6161 6222 6222 6222 6222 6222 6222 6222 6161 6101 6042 5985 5928 5928 5873 5873 5765 5713 5610 5610 5610 5610 5661 5661 5713 5713 5765 5765 5765 5765 5765 5818 5818 5873 5873 5985 6101 6161 6284 6347 6347 6347 6347 6347 6347 6347 6347 6347 6347 6347 6347 6347 6347 6284 6222 6222 6161 6161 6101 5985 5873 5765 5765 5713 5765 5765 5765 5765 5765 5765 5713 5713 5818 5985 6161 6284 6347 6478 6615 6830 6546 6478 6412 6412 6347 6347 6284 6284 6284 6222 6284 6284 6284 6284 6347 6347 0 0 0 0 0 6830 6757 6757 6685 6615 6546 6412 6347 6161 6101 5985 5985 5928 5928 5873 5873 5873 5818 5818 5873 5873 5873 5928 5985 6042 6101 6161 6161 0 0 0 0 0 0 0 0 0 0 0 0 0 0 0 0 0 0 0 0 0 7663 7663 7663 7663 7571 7571 7571 7393 7307 7141 6905 6757 6685 6615 6615 6615 6615 6615 7061 7141 7141 7141 7141 6982 6546 6284 6101 6101 6101 6042 6042 6042 5985 5985 5985 6478 7141 7141 7223 7223 7223 7223 7307 7307 7307 0 0 0 0 0 0 7481 7481 7481 7481 7481 7481 7481 7481 7393 7393 7393 7393 7393 7393 7393 7393 7393 7393 7393 7393 7393 7393 7393 7393 7307 7307 7307 7307 7307 7307 7307 7393 7393 7393 7393 7393 7393 7393 7307 7307 7393 7393 7393 7393 7393 7393 7393 7393 7393 7393 7393 7393 7307 7307 7307 7307 7393 7393 7393 7393 7393 7393 7393 7393 7307 7307 7307 7307 7393 7393 7393 7393 7481 7481 7481 65535 65535 65535 65535 65535 65535 65535 65535 65535 65535 65535 0 0 65535 65535 65535 65535 65535 65535 65535 65535 65535 65535 65535 65535 65535 65535 0 0 0 0 0 0 0 0 0 0 0
    0 0 0 0 0 0 0 0 0 0 0 0 0 0 0 0 0 0 0 0 0 0 0 0 0 0 0 0 0 0 0 0 0 0 0 6101 6101 6222 6284 6347 6478 6546 6546 6546 6478 6478 6546 6546 6615 6685 6685 6615 6615 6546 6546 6546 6546 6546 6478 6478 6478 6412 6347 6284 6284 6284 6222 6222 6222 6222 6222 0 0 0 0 0 0 0 5985 5985 5928 5873 5873 5873 5873 5818 5818 5818 5818 5818 5818 5818 5818 5818 5818 5818 5818 5765 5765 5765 5765 5765 5765 5765 5765 5765 5765 5713 5713 5713 5713 5713 5765 5713 5661 5610 5610 5561 5512 5464 5464 5464 5512 5512 5512 5512 5512 5561 5561 5610 5610 5610 5610 5661 5661 5661 5661 5661 5661 5661 5661 5661 5661 5661 5661 5661 5661 5713 5713 5713 5713 5713 5661 5661 5661 5661 5610 5610 5610 5610 5610 5610 5610 5610 5610 5610 5610 5610 5610 5610 5610 5610 5610 5610 5610 5610 5610 5610 5661 5661 5713 5713 5713 5713 5713 5765 5765 5765 5765 5818 5928 5985 5985 6042 6042 6042 6042 6101 6101 6161 6161 6161 6222 6222 6161 6161 6161 6101 6042 5985 5928 5928 5873 5818 5765 5661 5610 5610 5610 5661 5661 5713 5713 5713 5765 5765 5765 5765 5765 5818 5818 5873 5873 5985 6042 6161 6222 6347 6347 6347 6347 6284 6284 6284 6284 6284 6347 6347 6347 6284 6284 6284 6222 6161 6161 6101 6042 5985 5873 5765 5765 5713 5713 5661 5713 5661 5661 5713 5713 5713 5818 5928 6042 6161 6161 6222 6284 6412 6412 6478 6412 6412 6347 6347 6284 6284 6222 6222 6222 6284 6284 6284 6347 6284 0 0 0 0 0 6830 6757 6757 6546 6412 6347 6222 6161 6042 6042 5985 5928 5928 5928 5873 5873 5873 5818 5818 5873 5873 5873 5928 5985 5985 6042 6101 6101 0 0 0 0 0 0 0 0 0 0 0 0 0 0 0 0 0 0 0 0 0 7663 7663 7663 7663 7571 7571 7481 7307 7141 6982 6830 6685 6615 6615 6615 6546 6546 6546 6685 6757 6757 6757 6757 6478 6161 6101 6101 6101 6101 6042 6042 6042 5985 5985 5985 6347 7141 7141 7141 7141 7141 6905 6478 6222 6222 6222 6161 0 0 0 0 7481 7481 7481 7481 7481 7481 7481 7481 7393 7393 7393 7393 7393 7393 7307 7307 7393 7393 7393 7393 7393 7393 7307 7307 7307 7307 7307 7307 7307 7307 7307 7393 7393 7393 7393 7393 7393 7393 7393 7393 7307 7393 7393 7307 7307 7307 7307 7307 7307 7307 7307 7307 7307 7307 7307 7307 7307 7393 7393 7393 7393 7393 7393 7393 7307 7307 7307 7307 7393 7393 7393 7393 7481 7481 7481 14282 39276 65535 65535 65535 65535 65535 65535 65535 65535 65535 0 0 0 65535 65535 65535 65535 65535 65535 65535 65535 65535 65535 65535 65535 65535 0 0 0 0 0 0 0 0 0 0 0
    0 0 0 0 0 0 0 0 0 0 0 0 0 0 0 0 0 0 0 0 0 0 0 0 0 0 0 0 0 0 0 0 0 0 6101 6101 6101 6101 6101 6161 6222 6347 6347 6412 6412 6412 6412 6478 6546 6615 6615 6546 6546 6478 6478 6478 6478 6478 6412 6412 6412 6347 6347 6284 6284 6284 6222 6222 6222 6222 6222 0 0 0 0 0 6042 6042 6042 6042 5985 5928 5873 5873 5873 5873 5873 5873 5873 5873 5873 5873 5818 5818 5818 5818 5818 5818 5818 5818 5765 5765 5765 5765 5765 5765 5765 5765 5765 5765 5765 5713 5713 5561 5561 5561 5512 5512 5512 5464 5464 5417 5417 5464 5464 5464 5512 5512 5512 5561 5561 5561 5610 5610 5610 5610 5661 5661 5661 5661 5610 5610 5661 5661 5661 5661 5661 5713 5713 5713 5713 5713 5661 5661 5610 5610 5610 5610 5610 5610 5610 5610 5610 5610 5610 5610 5610 5610 5610 5610 5610 5610 5610 5610 5610 5610 5610 5610 5610 5610 5610 5661 5661 5661 5713 5713 5765 5765 5765 5765 5928 5985 5985 5985 6042 6042 6042 6042 6042 6101 6101 6161 6161 6161 6161 6161 6101 6101 6042 5985 5928 5928 5873 5818 5765 5661 5661 5610 5661 5661 5713 5713 5713 5713 5713 5765 5765 5765 5765 5765 5818 5818 5873 5928 5985 6101 6161 6284 6284 6284 6284 6284 6284 6284 6284 6284 6284 6284 6284 6284 6284 6222 6222 6161 6101 6101 6042 5928 5818 5765 5765 5713 5713 5661 5661 5661 5661 5661 5661 5713 5765 5818 5928 5928 5985 5985 6042 6101 6284 6347 6347 6347 6347 6284 6284 6284 6222 6222 6222 6222 6222 6222 6284 6284 6222 0 0 0 0 0 6161 6161 6284 6222 6161 6161 6101 6042 5985 5985 5928 5928 5928 5873 5873 5873 5873 5873 5873 5873 5873 5928 5928 5985 5985 6042 6101 6042 0 0 0 0 0 0 0 0 0 0 0 0 0 0 0 0 0 0 0 0 0 7663 7663 7663 7571 7571 7393 7141 6905 6830 6757 6685 6615 6615 6546 6546 6546 6478 6546 6615 6615 6546 6478 6347 6161 6101 6101 6101 6042 6042 6042 6042 5985 5985 5985 5985 6546 7141 7141 7141 6830 6412 6222 6222 6222 6222 6161 6161 0 0 0 0 7481 7481 7481 7481 7481 7481 7393 7393 7393 7393 7307 7307 7223 7223 7223 7223 7307 7307 7307 7307 7307 7307 7223 7223 7223 7223 7307 7307 7307 7307 7393 7393 7393 7393 7393 7393 7393 7393 7393 7393 7393 7307 7307 7307 7307 7307 7223 7307 7307 7307 7307 7307 7307 7307 7307 7307 7393 7393 7393 7393 7393 7393 7393 7307 7307 7307 7307 7393 7393 7393 7393 7481 7481 7481 10302 18483 52369 65535 65535 65535 65535 65535 65535 65535 65535 0 0 0 0 65535 65535 65535 65535 65535 65535 65535 65535 65535 65535 65535 65535 0 0 0 0 0 0 0 0 0 0 0
    0 0 0 0 0 0 0 0 0 0 0 0 0 0 0 0 0 0 0 0 0 0 0 0 0 0 0 0 0 0 0 0 0 6101 6101 6101 6101 6101 6101 6101 6101 6161 6222 6284 6284 6347 6347 6347 6478 6546 6615 6546 6478 6478 6412 6412 6412 6412 6347 6347 6347 6347 6347 6284 6284 6284 6222 6222 6222 6222 6222 0 0 0 0 0 6042 6042 6042 6042 5985 5985 5928 5873 5873 5873 5873 5873 5873 5873 5873 5873 5818 5818 5818 5818 5818 5818 5818 5818 5818 5818 5765 5765 5765 5765 5765 5765 5765 5765 5765 5713 5713 5561 5661 5661 5661 5661 5661 5610 5610 5610 5610 5561 5561 5512 5512 5464 5512 5512 5512 5561 5561 5561 5610 5610 5610 5661 5661 5661 5610 5610 5610 5661 5661 5661 5661 5713 5713 5713 5713 5661 5661 5661 5610 5610 5561 5561 5561 5561 5561 5610 5610 5610 5610 5610 5610 5610 5610 5610 5610 5610 5561 5561 5561 5561 5610 5610 5610 5610 5610 5561 5610 5610 5661 5661 5713 5713 5713 0 5928 5985 5985 5985 5985 5985 5985 5985 6042 6042 6042 6101 6101 6101 6101 6101 6101 6042 5985 5985 5928 5873 5873 5818 5765 5713 5661 5661 5661 5713 5713 5713 5713 5713 5713 5713 5765 5765 5765 5765 5818 5818 5818 5873 5928 6042 6101 6222 6222 6222 6222 6222 6222 6222 6222 6222 6222 6222 6222 6222 6222 6222 6161 6161 6101 6101 5985 5928 5818 5765 5765 5713 5661 5661 5661 5661 5661 5661 5661 5661 5713 5765 5818 5873 5928 5928 5928 5985 6161 6222 6284 6284 6284 6284 6284 6222 6222 6222 6222 6222 6222 6222 6222 6222 6222 6161 0 0 0 6161 6161 6161 6222 6161 6161 6101 6101 6042 5985 5985 5928 5928 5873 5873 5873 5873 5873 5873 5873 5873 5873 5928 5928 5985 5985 6042 6042 6042 5985 0 0 0 0 0 0 0 0 0 0 0 0 0 0 0 0 6284 6284 6284 6284 6284 6284 6347 6347 6347 6685 6757 6757 6685 6685 6615 6615 6546 6546 6546 6478 6478 6478 6478 6478 6412 6347 6222 6101 6101 6101 6042 6042 6042 6042 6042 6042 6042 6042 6042 6101 6161 6222 6222 6222 6222 6222 6222 6222 6222 6222 6284 6347 6478 0 0 7481 7481 7481 7481 7481 7481 7393 7393 7307 7223 7223 7223 7141 7141 7141 7141 7141 7141 7141 7141 7141 7141 7141 7141 7141 7223 7223 7307 7307 7307 7307 7393 7393 7393 7393 7393 7393 7393 7393 7393 7393 7307 7307 7223 7223 7223 7141 7223 7223 7223 7223 7223 7223 7223 7307 7307 7307 7393 7393 7393 7393 7393 7393 7307 7307 7307 7307 7393 7393 7393 7393 7481 7481 7481 8268 11025 20271 52369 65535 65535 65535 65535 65535 65535 65535 0 0 0 0 0 0 65535 65535 65535 65535 65535 65535 65535 65535 65535 65535 0 0 0 0 0 0 0 0 0 0 0
    0 0 0 0 0 0 0 0 0 0 0 0 0 0 0 0 0 0 0 0 0 0 0 0 0 0 0 0 0 0 0 0 0 6101 6101 6101 6101 6101 6101 6101 6101 6101 6161 6222 6222 6222 6222 6284 6284 6412 6478 6412 6412 6412 6412 6347 6347 6347 6347 6347 6347 6347 6347 6284 6284 6284 6284 6222 6222 6222 6222 0 0 0 0 0 6042 6042 6042 6042 6042 5985 5985 5928 5873 5873 5873 5873 5873 5873 5873 5873 5873 5818 5818 5818 5818 5818 5818 5818 5818 5818 5818 5765 5765 5765 5765 5765 5765 5765 5818 5818 0 5561 5661 5713 5765 5765 5765 5818 5818 5818 5818 5765 5765 5713 5610 5561 5512 5512 5464 5512 5512 5512 5561 5610 5661 5661 5661 5661 5661 5661 5661 5661 5661 5661 5661 5661 5661 5661 5661 5661 5610 5610 5610 5561 5561 5561 5561 5561 5561 5610 5610 5610 5610 5610 5610 5610 5610 5610 5610 5610 5610 5561 5561 5610 5610 5610 5610 5610 5610 5610 5610 5610 5561 5561 5561 0 5818 5818 5818 5873 5873 5928 5928 5928 5985 5985 5985 5985 6042 6042 6042 6042 6042 6042 6042 6042 5985 5928 5928 5873 5873 5818 5765 5713 5713 5661 5713 5713 5713 5713 5713 5713 5713 5713 5765 5765 5765 5765 5765 5818 5818 5873 5873 5928 6042 6101 6101 6161 6161 6161 6161 6161 6161 6161 6161 6161 6222 6222 6161 6161 6161 6101 6101 6042 5985 5928 5818 5818 5765 5713 5713 5661 5661 5661 5661 5661 5661 5713 5713 5765 5818 5818 5873 5928 5928 5985 6101 6161 6222 6284 6284 6222 6222 6222 6222 6222 6222 6222 6222 6222 6222 6222 6161 6161 6161 0 6222 6161 6161 6161 6161 6101 6101 6101 6042 5985 5985 5928 5928 5928 5873 5873 5873 5873 5873 5873 5873 5873 5873 5928 5928 5928 5985 5985 5985 5985 5928 5873 0 0 0 0 0 0 0 0 0 0 0 0 0 6347 6347 6284 6284 6284 6284 6284 6284 6284 6347 6347 6546 6615 6615 6615 6615 6546 6546 6546 6478 6478 6478 6412 6412 6412 6347 6284 6284 6161 6101 6101 6042 6042 6042 6042 6042 6042 6042 6042 6042 6101 6101 6161 6222 6284 6284 6222 6222 6222 6222 6222 6222 6284 6284 6347 0 0 0 0 7393 7393 7393 7393 7307 7223 7141 7141 7061 7061 7061 7061 7061 7061 7061 7061 6982 6982 6982 6982 6982 7061 7061 7141 7223 7223 7223 7307 7307 7223 7223 7223 7223 7307 7307 7393 7393 7393 7393 7307 7223 7223 7141 7141 7141 7141 7141 7141 7141 7223 7223 7223 7223 7223 7223 0 0 7307 7307 7307 7307 7307 7307 7307 7307 7393 7393 7393 7393 7481 7481 7481 7481 8268 11637 26184 65535 65535 65535 65535 65535 65535 65535 0 0 0 0 0 0 0 65535 65535 65535 65535 65535 65535 65535 65535 65535 0 0 0 0 0 0 0 0 0 0 0
    0 0 0 0 0 0 0 0 0 0 0 0 0 0 0 0 0 0 0 0 0 0 0 0 0 0 0 0 0 0 0 0 0 6101 6101 6101 6101 6101 6101 6101 6101 6101 6161 6161 6161 6222 6222 6222 6222 6284 6347 6347 6347 6347 6347 6347 6347 6347 6347 6347 6347 6347 6347 6347 6347 6347 6284 0 0 0 0 0 0 0 0 0 6042 6042 6042 6042 6042 6042 5985 5985 5928 5873 5873 5873 5873 5873 5873 5873 5873 5873 5818 5818 5818 5818 5818 5818 5818 5818 5818 5818 5765 5765 5818 5818 5818 5818 5818 5873 0 5561 5818 5873 5928 5928 5985 5985 5985 5985 6042 5985 5928 5873 5818 5713 5610 5561 5512 5464 5464 5512 5512 5610 5661 5661 5661 5661 5661 5661 5661 5661 5661 5661 5661 5661 5661 5661 5610 5610 5610 5561 5561 5561 5561 5561 5561 5561 5561 5561 5561 5561 5561 5561 5610 5610 5610 5610 5610 5610 5610 5610 5610 5610 5610 5610 5610 5610 5610 5610 5610 5610 5610 5561 5661 5818 5818 5818 5818 5818 5873 5873 5873 5928 5928 5928 5928 5985 5985 5985 6042 6042 6042 6042 5985 5985 5985 5928 5928 5873 5873 5818 5765 5765 5713 5713 5713 5713 5713 5713 5713 5713 5713 5713 5713 5765 5765 5765 5765 5765 5818 5818 5873 5928 5985 6042 6042 6042 6101 6101 6101 6101 6101 6101 6101 6161 6161 6161 6161 6161 6101 6101 6042 6042 5985 5928 5873 5818 5765 5765 5713 5713 5713 5713 5713 5713 5713 5713 5713 5765 5765 5818 5873 5873 5928 5985 6042 6101 6161 6222 6222 6222 6222 6222 6222 6222 6222 6222 6222 6222 6161 6161 6161 6101 6101 6042 6101 6101 6101 6101 6101 6101 6101 6042 6042 5985 5985 5928 5928 5928 5873 5873 5873 5873 5873 5873 5873 5873 5873 5873 5928 5928 5928 5928 5928 5928 5928 5928 5985 5985 5985 5985 5928 5928 0 0 5985 5985 5985 6101 6161 6222 6284 6284 6284 6284 6222 6222 6284 6284 6284 6347 6412 6478 6546 6546 6546 6546 6478 6478 6478 6412 6412 6412 6412 6347 6347 6284 6222 6161 6101 6042 6042 6042 6042 6042 6042 6042 6042 6042 6101 6101 6161 6222 6284 6284 6284 6284 6222 6222 6222 6222 6222 6284 6284 6284 6222 6222 6222 0 0 0 0 0 6757 6905 6982 6982 6982 6982 6905 6905 6905 6905 6905 6905 6905 6905 6905 6905 6905 6905 6905 6982 7061 7141 7223 7307 7141 7061 6982 6982 6982 7141 7223 7307 7393 7393 7393 7307 7223 7141 7061 7061 7061 7061 7061 7061 7141 7141 7141 7141 7223 7223 7223 7141 0 0 7307 7307 7307 7307 7307 7307 7307 7393 7393 7393 7393 7481 7481 7481 7481 7481 8492 14282 65535 65535 65535 65535 65535 65535 65535 0 0 0 0 0 0 0 0 65535 65535 65535 65535 65535 65535 0 0 0 0 0 0 0 0 0 0 0 0 0
    0 0 0 0 0 0 0 0 0 0 0 0 0 0 0 0 0 0 0 0 0 0 0 0 0 0 0 0 0 0 0 0 0 6101 6101 6101 6101 6101 6101 6161 6161 6161 6161 6161 6161 6161 6161 6222 6222 6284 6284 6284 6284 6347 6347 6347 6347 6412 6347 6347 6347 6347 6347 6347 6347 6347 6284 6284 6284 6284 0 0 0 0 0 0 6042 6042 6042 6042 6042 6042 6042 6042 6042 6042 5985 5985 5985 5873 5873 5873 5873 5873 5818 5818 5818 5818 5818 5818 5818 5818 5818 5818 5818 5818 5818 5818 5818 5818 5873 5873 0 6347 6161 6161 6161 6161 6161 6222 6222 6222 6222 6222 6161 6101 5985 5873 5765 5661 5561 5512 5512 5561 5512 5610 5661 5713 5713 5661 5661 5661 5661 5661 5661 5661 5661 5661 5661 5610 5610 5561 5561 5561 5561 5561 5561 5561 5561 5561 5561 5561 5561 5561 5561 5561 5610 5610 5610 5610 5610 5610 5610 5610 5610 5610 5610 5610 5610 5610 5610 5610 5610 5610 5610 5610 5713 5818 5818 5818 5818 5818 5873 5873 5873 5873 5873 5873 5928 5928 5985 5985 5985 5985 5985 5985 5985 5985 5928 5928 5928 5873 5873 5818 5818 5765 5713 5713 5713 5713 5713 5765 5765 5765 5765 5765 5713 5713 5765 5765 5765 5765 5765 5818 5873 5928 5985 5985 5985 6042 6042 6042 6042 6042 6042 6042 6101 6101 6101 6101 6101 6101 6101 6101 6042 6042 5985 5928 5928 5873 5818 5765 5765 5765 5765 5765 5713 5713 5713 5713 5765 5765 5818 5818 5873 5873 5928 5985 6042 6042 6101 6161 6161 6161 6161 6161 6161 6222 6222 6222 6222 6161 6161 6161 6101 6101 6101 6042 6101 6101 6101 6101 6101 6042 6042 6042 5985 5985 5928 5928 5928 5928 5873 5873 5873 5873 5873 5873 5873 5873 5873 5873 5928 5928 5928 5928 5928 5928 5928 5928 5928 5985 5985 5985 5928 5928 5928 5985 5985 5985 5985 6042 6101 6161 6222 6284 6284 6284 6222 6222 6222 6222 6284 6284 6412 6478 6478 6546 6546 6478 6478 6412 6412 6412 6412 6347 6347 6347 6284 6284 6222 6161 6101 6042 6042 6042 6042 6042 6042 6042 6042 6101 6101 6101 6161 6222 6284 6284 6284 6284 6222 6222 6222 6222 6222 6284 6284 6284 6222 6222 6222 6161 6161 0 0 0 6757 6830 6830 6830 6830 6830 6830 6830 6830 6830 6830 6830 6757 6757 6757 6757 6830 6830 6830 6830 6830 6830 6905 7141 6982 6905 6830 6905 6905 6982 7061 7223 7393 7393 7393 7307 7061 7061 7061 7061 6982 6982 6982 7061 7061 7061 7141 7141 7141 7141 7141 7141 0 0 0 7307 7307 7307 7307 7307 7307 7393 7393 7393 7393 7481 7481 7481 7481 7481 7481 9241 65535 65535 65535 65535 65535 65535 0 0 0 0 0 0 0 0 0 0 0 0 0 0 0 0 0 0 0 0 0 0 0 0 0 0 0 0
    0 0 0 0 0 0 0 0 0 0 0 0 0 0 0 0 0 0 0 0 0 0 0 0 0 0 0 0 0 0 0 0 0 6161 6161 6161 6161 6161 6161 6161 6161 6161 6161 6161 6161 6161 6161 6222 6222 6222 6284 6284 6284 6284 6347 6347 6347 6412 6412 6412 6412 6347 6347 6347 6347 6347 6284 6284 6284 6284 6284 6284 0 6284 6284 6284 6222 6161 6101 6101 6101 6101 6101 6101 6222 6347 6412 6347 6222 5928 5873 5873 5873 5873 5818 5818 5818 5818 5818 5818 5818 5818 5818 5818 5818 5818 5818 5818 5818 5873 5873 5873 0 6347 6347 6347 6347 6347 6412 6412 6478 6478 6478 6478 6412 6347 6222 6042 5928 5818 5765 5713 5661 5765 5765 5818 5818 5765 5713 5713 5713 5713 5713 5713 5713 5713 5661 5661 5661 5610 5561 5561 5561 5561 5561 5561 5561 5561 5561 5561 5561 5561 5561 5561 5561 5561 5610 5610 5610 5610 5610 5610 5610 5610 5610 5610 5610 5610 5610 5661 5661 5661 5661 5661 5661 5661 5713 5818 5818 5818 5818 5818 5818 5818 5873 5873 5873 5873 5873 5928 5928 5985 5985 5985 5985 5985 5985 5985 5928 5928 5928 5873 5873 5818 5818 5765 5765 5765 5713 5765 5765 5765 5765 5765 5765 5765 5765 5713 5713 5765 5765 5765 5765 5765 5818 5928 5985 5985 5985 5985 6042 6042 6042 6042 6042 6042 6042 6042 6101 6101 6101 6101 6101 6042 6042 6042 5985 5985 5928 5873 5818 5818 5818 5765 5765 5765 5765 5765 5765 5765 5765 5818 5818 5873 5873 5873 5928 5928 5985 5985 6042 6101 6101 6101 6101 6101 6161 6161 6161 6161 6161 6161 6161 6101 6101 6101 6101 6042 6101 6101 6042 6042 6042 6042 5985 5985 5985 5928 5928 5928 5928 5928 5873 5873 5873 5928 5928 5928 5928 5928 5928 5873 5873 5873 5928 5928 5928 5928 5928 5928 5928 5985 5985 5928 5928 5928 5985 6042 6042 6042 6042 6042 6101 6161 6222 6284 6284 6284 6222 6222 6222 6222 6284 6284 6347 6412 6412 6478 6478 6412 6412 6412 6412 6412 6347 6347 6347 6347 6284 6222 6222 6161 6101 6042 6042 6042 6042 6042 6042 6042 6101 6101 6101 6161 6161 6222 6284 6284 6284 6284 6284 6222 6222 6284 6284 6284 6222 6222 6222 6222 6222 6222 6222 6284 6284 6284 6478 6546 6615 6685 6685 6757 6757 6757 6830 6757 6757 6757 6757 6685 6685 6685 6685 6685 6757 6757 6757 6685 6757 6905 6830 6830 6830 6830 6830 6757 6757 6757 0 0 0 0 6982 6982 6982 6982 6982 6982 6982 6982 7061 7061 7061 7061 7061 7061 7061 7061 6982 0 0 0 0 0 0 7307 7307 7393 7393 7393 7393 7481 7481 7481 7481 7481 7481 7481 65535 65535 65535 65535 65535 65535 0 0 0 0 0 0 0 0 0 0 0 0 0 0 0 0 0 0 0 0 0 0 0 0 0 0 0 0
    0 0 0 0 0 0 0 0 0 0 0 0 0 0 0 0 0 0 0 0 0 0 0 0 0 0 0 0 0 0 0 0 0 6161 6161 6161 6161 6161 6161 6161 6161 6161 6161 6161 6161 6161 6161 6222 6222 6222 6222 6284 6284 6284 6284 6347 6347 6412 6412 6412 6412 6347 6347 6347 6347 6284 6284 6284 6284 6284 6284 6284 6284 6284 6284 6284 6284 6284 6222 6161 6101 6101 6161 6161 6284 6347 6412 6412 6412 5873 5873 5873 5818 5818 5818 5818 5818 5818 5818 5818 5818 5818 5818 5818 5818 5818 5818 5818 5873 5873 5873 5873 0 6412 6347 6347 6347 6412 6412 6412 6478 6478 6478 6478 6478 6478 6412 6284 6101 5985 5928 5873 5873 5985 5985 6042 5985 5873 5765 5713 5713 5713 5713 5713 5713 5713 5661 5661 5610 5610 5561 5561 5512 5561 5561 5561 5561 5561 5561 5610 5610 5610 5610 5610 5610 5610 5610 5610 5610 5610 5610 5610 5610 5610 5610 5610 5610 5661 5661 5661 5661 5661 5661 5661 5661 5661 5765 5818 5818 5818 5818 5818 5818 5818 5873 5873 5873 5873 5873 5873 5928 5928 5985 5985 5985 5985 5928 5928 5928 5928 5928 5873 5873 5873 5818 5765 5765 5765 5765 5765 5765 5765 5765 5765 5765 5765 5765 5765 5713 5713 5765 5765 5765 5765 5818 5873 5985 5985 5985 5985 5985 5985 5985 5985 5985 5985 5985 6042 6042 6042 6042 6101 6101 6042 6042 6042 5985 5985 5928 5928 5873 5873 5818 5818 5818 5818 5818 5765 5765 5818 5818 5818 5873 5873 5873 5873 5873 5928 5928 5928 5985 5985 6042 6042 6042 6101 6101 6101 6161 6161 6161 6101 6101 6101 6101 6101 6101 6042 6042 6042 6042 6042 5985 5985 5985 5985 5928 5928 5928 5928 5928 5928 5873 5873 5928 5928 5928 5928 5928 5928 5928 5928 5873 5873 5873 5873 5873 5928 5928 5928 5928 5985 5985 5985 5928 5985 5985 6042 6042 6042 6042 6042 6101 6161 6222 6284 6284 6284 6222 6222 6222 6222 6222 6284 6284 6347 6412 6412 6412 6412 6412 6347 6347 6347 6347 6347 6284 6284 6284 6222 6161 6101 6101 6042 6042 6042 6042 6042 6042 6042 6101 6101 6101 6161 6161 6222 6284 6284 6284 6284 6284 6284 6222 6222 6222 6222 6222 6222 6222 6222 6222 6222 6222 6222 6284 6284 6412 6478 6478 6546 6615 6615 6685 6685 6757 6757 6757 6757 6685 6685 6685 6685 6685 6685 6685 6685 6685 6685 6757 6830 6830 6830 6830 6830 6830 6757 6757 6757 6757 0 0 0 6982 6982 6982 6982 6982 6982 6982 6982 6982 6982 7061 7061 7061 7061 7061 6982 6982 6905 6905 0 0 0 0 0 0 0 7393 7393 7393 7481 7481 7481 7481 7481 7481 7481 0 0 0 0 0 0 0 0 0 0 0 0 0 0 0 0 0 0 0 0 0 0 0 0 0 0 0 0 0 0 0 0 0 0
    0 0 0 0 0 0 0 0 0 0 0 0 0 0 0 0 0 0 0 0 0 0 0 0 0 0 0 0 0 0 0 0 0 6161 6161 6161 6161 6161 6161 6161 6161 6161 6161 6161 6161 6161 6161 6222 6222 6222 6222 6222 6222 6222 6284 6284 6347 6347 6412 6412 6347 6347 6347 6347 6347 6284 6284 6284 6284 6284 6222 6222 6284 6284 6347 6347 6347 6284 6222 6222 6161 6161 6161 6222 6284 6347 6412 6412 6412 0 5818 5818 5818 5818 5818 5818 5818 5818 5818 5818 5818 5818 5818 5818 5818 5818 5818 5818 5873 5873 5873 5873 0 6412 6412 6347 6412 6412 6412 6412 6478 6478 6478 6478 6478 6478 6412 6347 6222 6161 6101 6042 6042 6101 6161 6161 6101 5928 5818 5765 5765 5765 5713 5713 5713 5661 5661 5661 5610 5610 5561 5561 5561 5561 5561 5561 5561 5610 5610 5610 5610 5610 5610 5610 5610 5610 5610 5610 5610 5610 5610 5610 5610 5610 5610 5610 5661 5661 5661 5661 5661 5713 5713 5713 5713 5713 5765 5818 5818 5818 5818 5818 5818 5818 5818 5818 5818 5818 5818 5873 5873 5928 5985 5985 5985 5985 5928 5928 5928 5928 5928 5873 5873 5873 5818 5765 5765 5765 5765 5765 5765 5765 5765 5765 5765 5765 5765 5765 5713 5713 5765 5765 5765 5765 5765 5818 5873 5928 5928 5928 5928 5985 5985 5985 5985 5985 5985 5985 5985 6042 6042 6042 6042 6042 6042 6042 6042 5985 5985 5928 5873 5873 5873 5873 5873 5818 5818 5818 5818 5818 5818 5873 5873 5873 5873 5873 5873 5873 5873 5928 5928 5928 5985 5985 5985 6042 6042 6101 6101 6101 6101 6101 6101 6101 6101 6042 6042 6042 6042 6042 5985 5985 5985 5928 5928 5928 5928 5928 5928 5928 5873 5873 5873 5928 5928 5928 5928 5928 5928 5928 5928 5928 5928 5928 5873 5873 5873 5873 5928 5928 5985 5985 5985 5985 5985 5985 5985 6042 6042 6042 6042 6042 6101 6161 6222 6222 6284 6222 6222 6222 6222 6222 6222 6222 6222 6284 6347 6347 6347 6347 6347 6347 6347 6347 6347 6284 6284 6284 6222 6222 6161 6101 6101 6042 6042 6042 6042 6042 6042 6101 6101 6101 6101 6161 6222 6222 6284 6284 6284 6284 6284 6222 6222 6222 6222 6222 6222 6222 6222 6222 6222 6222 6222 6222 6284 6284 6347 6347 6412 6478 6478 6546 6546 6615 6685 6685 6685 6685 6685 6685 6685 6685 6615 6615 6615 6685 6685 6685 6757 6830 6905 6830 6830 6830 6830 6830 6757 6757 6757 0 0 0 6982 6982 6982 6982 6982 6982 6982 6982 6982 6982 6982 6982 6982 6982 6982 6982 6982 6905 6905 6905 0 0 0 0 0 0 0 7393 7393 7481 7481 7481 7481 7481 7481 7481 0 0 0 0 0 0 0 0 0 0 0 0 0 0 0 0 0 0 0 0 0 0 0 0 0 0 0 0 0 0 0 0 0 0
    0 0 0 0 0 0 0 0 0 0 0 0 0 0 0 0 0 0 0 0 0 0 0 0 0 0 0 0 0 0 0 0 0 6161 6161 6161 6161 6161 6161 6161 6161 6161 6161 6161 6222 6222 6222 6222 6222 6222 6222 6222 6222 6222 6222 6284 6284 6347 6347 6412 6347 6347 6347 6347 6284 6284 6284 6284 6284 6222 6222 6222 6284 6284 6347 6347 6347 6284 6284 6222 6222 6161 6222 6284 6284 6347 6412 6412 6412 6347 0 5818 5818 5818 5818 5818 5818 5818 5818 5818 5818 5818 5818 5873 5873 5873 5873 5873 5873 5873 5873 5873 0 6412 6412 6412 6412 6412 6412 6412 6478 6478 6478 6478 6478 6478 6412 6412 6347 6284 6222 6222 6161 6222 6161 6161 6161 6042 5928 5818 5818 5765 5765 5713 5713 5661 5661 5661 5610 5610 5561 5561 5561 5561 5561 5561 5610 5610 5610 5610 5610 5610 5610 5610 5610 5610 5610 5610 5610 5610 5610 5610 5610 5610 5610 5610 5661 5661 5661 5661 5713 5713 5765 5818 5818 5765 5765 5765 5765 5818 5818 5818 5818 5818 5818 5818 5818 5818 5818 5873 5873 5928 5928 5928 5928 5928 5928 5928 5928 5928 5873 5873 5873 5818 5818 5765 5765 5765 5765 5765 5765 5765 5765 5765 5765 5765 5765 5765 5713 5713 5713 5765 5765 5765 5765 5818 5818 5873 5873 5873 5928 5928 5928 5928 5928 5928 5928 5928 5985 5985 6042 6042 6042 6042 6042 6042 6042 5985 5985 5928 5928 5873 5873 5873 5873 5873 5818 5818 5818 5873 5873 5873 5873 5873 5873 5873 5873 5873 5873 5873 5873 5873 5928 5928 5985 5985 5985 6042 6042 6101 6101 6101 6101 6042 6042 6042 6042 6042 6042 6042 5985 5985 5928 5928 5873 5873 5873 5873 5873 5873 5873 5873 5873 5928 5928 5928 5928 5985 5985 5985 5928 5928 5928 5928 5928 5928 5928 5928 5928 5928 5985 5985 5985 5985 5985 5985 5985 6042 6042 6042 6042 6042 6101 6161 6161 6222 6284 6284 6222 6222 6161 6161 6161 6161 6222 6222 6284 6347 6284 6284 6284 6284 6284 6284 6284 6284 6284 6284 6222 6222 6161 6161 6101 6101 6042 6042 6042 6042 6042 6042 6101 6101 6101 6161 6222 6222 6284 6284 6284 6284 6222 6222 6222 6222 6222 6222 6222 6222 6222 6161 6222 6222 6222 6222 6222 6284 6284 6284 6347 6347 6412 6412 6478 6546 6615 6685 6685 6685 6685 6685 6615 6615 6615 6615 6615 6615 6615 6685 6685 6830 6830 6830 6830 6830 6830 6830 6757 6757 6757 0 0 0 6982 6982 6982 6982 6982 6905 6982 6982 6982 6982 6982 6982 6982 6982 6982 6982 6982 6905 6905 6905 6905 0 0 0 0 0 0 0 7393 7481 7481 7481 7481 7481 7481 7481 0 0 0 0 0 0 0 0 0 0 0 0 0 0 0 0 0 0 0 0 0 0 0 0 0 0 0 0 0 0 0 0 0 0
    0 0 0 0 0 0 0 0 0 0 0 0 0 0 0 0 0 0 0 0 0 0 0 0 0 0 0 0 0 0 0 0 0 6161 6161 6161 6161 6161 6161 6161 6161 6161 6161 6222 6222 6222 6222 6222 6222 6222 6222 6222 6222 6222 6222 6222 6222 6284 6347 6347 6347 6347 6347 6284 6284 6284 6284 6284 6222 6222 6222 6222 6284 6284 6347 6347 6347 6284 6284 6222 6222 6222 6222 6284 6347 6347 6412 6412 6412 6347 0 5818 5818 5818 5818 5818 5818 5818 5873 5873 5873 5818 5818 5928 5873 5873 5873 5873 5873 5873 5873 0 0 6412 6412 6412 6412 6412 6412 6412 6478 6478 6478 6478 6478 6412 6412 6412 6412 6347 6284 6222 6222 6222 6161 6161 6161 6101 5985 5928 5818 5818 5765 5713 5713 5661 5661 5610 5610 5610 5561 5561 5561 5561 5561 5561 5610 5610 5610 5610 5610 5610 5610 5610 5610 5610 5610 5610 5610 5610 5610 5610 5610 5610 5610 5610 5661 5661 5661 5713 5765 5818 5765 5661 5661 5610 5661 5713 5713 5765 5765 5818 5818 5818 5818 5818 5818 5818 5818 5873 5873 5928 5928 5928 5928 5928 5928 5928 5928 5873 5873 5873 5873 5818 5818 5765 5765 5765 5765 5765 5765 5765 5765 5765 5765 5765 5765 5765 5713 5713 5713 5765 5765 5765 5765 5765 5818 5818 5818 5873 5873 5873 5873 5928 5928 5928 5928 5928 5928 5985 5985 6042 6042 6042 6042 6042 6042 6042 5985 5928 5928 5873 5873 5873 5873 5873 5873 5873 5873 5873 5873 5873 5873 5873 5873 5873 5873 5873 5873 5873 5873 5873 5873 5928 5928 5985 5985 6042 6042 6042 6042 6042 6042 6042 6042 6042 6042 6042 6042 5985 5985 5928 5873 5873 5873 5873 5873 5873 5873 5873 5873 5873 5873 5928 5928 5985 5985 5985 5985 5985 5985 5985 5985 5928 5928 5928 5985 5985 5985 5985 6042 6042 5985 5985 5985 5985 5985 6042 6042 6042 6042 6042 6101 6101 6161 6222 6222 6222 6222 6222 6161 6161 6161 6161 6161 6222 6222 6284 6284 6284 6284 6284 6284 6284 6284 6284 6284 6222 6222 6222 6161 6161 6101 6101 6101 6042 6042 6042 6042 6042 6101 6101 6101 6161 6222 6222 6284 6284 6284 6222 6222 6222 6222 6222 6222 6222 6222 6222 6222 6161 6222 6222 6222 6222 6222 6222 6284 6284 6284 6284 6347 6347 6347 6412 6546 6615 6615 6685 6685 6615 6615 6615 6615 6615 6615 6615 6615 6615 6685 6757 6830 6905 6830 6830 6830 6830 6757 6757 6757 0 0 0 6905 6905 6905 6905 6905 6905 6905 6905 6905 6905 6905 6905 6905 6905 6905 6905 6905 6905 6905 6905 6905 0 0 0 0 0 0 0 0 7481 7481 7481 7481 7481 7481 0 0 0 0 0 0 0 0 0 0 0 0 0 0 0 0 0 0 0 0 0 0 0 0 0 0 0 0 0 0 0 0 0 0 0
    0 0 0 0 0 0 0 0 0 0 0 0 0 0 0 0 0 0 0 0 0 0 0 0 0 0 0 0 0 0 0 0 0 6161 6161 6161 6161 6161 6222 6222 6222 6222 6222 6222 6222 6222 6222 6222 6222 6222 6222 6222 6222 6161 6161 6161 6161 6222 6347 6347 6347 6347 6347 6347 6284 6284 6284 6222 6222 6222 6222 6222 6284 6284 6347 6347 6347 6347 6284 6284 6222 6222 6222 6284 6347 6347 6412 6412 6412 6347 0 5818 5818 5818 5818 5818 5818 5818 5873 5873 5873 0 5818 5985 5928 5873 5873 5928 5873 5873 5873 0 0 6412 6412 6412 6412 6412 6412 6412 6412 6412 6412 6412 6412 6412 6412 6412 6412 6347 6284 6284 6222 6222 6161 6161 6161 6101 6042 5928 5873 5818 5765 5713 5661 5661 5661 5610 5610 5610 5561 5561 5561 5561 5561 5610 5610 5610 5610 5610 5661 5661 5661 5661 5661 5661 5610 5610 5610 5610 5610 5610 5610 5610 5610 5610 5610 5610 5610 5610 5610 5561 5561 5512 5512 5512 5610 5661 5713 5713 5765 5765 5818 5818 5818 5818 5818 5818 5818 5873 5873 5873 5928 5928 5928 5928 5928 5928 5928 5873 5873 5873 5873 5818 5818 5765 5765 5765 5765 5765 5765 5765 5765 5765 5765 5765 5765 5765 5713 5713 5713 5713 5765 5765 5765 5765 5765 5765 5765 5818 5818 5818 5873 5873 5873 5873 5873 5873 5928 5928 5985 5985 6042 6042 6042 6042 6042 5985 5985 5928 5928 5873 5873 5873 5873 5873 5873 5873 5873 5873 5873 5873 5873 5873 5873 5873 5873 5873 5873 5873 5873 5873 5873 5873 5928 5928 5985 5985 6042 6042 6042 6042 6042 6042 6042 6042 6042 6042 6042 5985 5928 5928 5873 5818 5818 5818 5818 5818 5873 5873 5873 5873 5873 5928 5928 5985 5985 6042 6042 6042 5985 5985 5985 5985 5985 5985 5985 6042 6042 6042 6042 6042 6042 5985 5985 5985 5985 6042 6042 6042 6042 6042 6101 6101 6161 6161 6222 6222 6222 6161 6161 6101 6101 6101 6101 6161 6222 6222 6284 6284 6284 6284 6284 6284 6284 6284 6222 6222 6222 6161 6161 6161 6101 6101 6101 6101 6042 6042 6042 6042 6101 6101 6101 6161 6222 6222 6284 6284 6222 6222 6222 6222 6222 6222 6222 6222 6222 6161 6161 6161 6161 6161 6222 6222 6222 6222 6222 6284 6284 6284 6284 6284 6284 6347 6412 6478 6546 6615 6615 6615 6615 6546 6546 6546 6546 6615 6615 6615 6685 6757 6830 6830 6830 6830 6830 6830 6830 6830 6830 0 0 0 6905 6905 6905 6905 6905 6905 6905 6905 6905 6905 6905 6905 6905 6905 6905 6905 6905 6905 6905 6905 6905 0 0 0 0 0 0 0 0 0 0 0 0 0 0 0 0 0 0 0 0 0 0 0 0 0 0 0 0 0 0 0 0 0 0 0 0 0 0 0 0 0 0 0 0 0 0 0 0 0
    0 0 0 0 0 0 0 0 0 0 0 0 0 0 0 0 0 0 0 0 0 0 0 0 0 0 0 0 0 0 0 0 0 6161 6161 6161 6222 6222 6222 6222 6222 6222 6222 6222 6222 6222 6222 6222 6222 6222 6222 6222 6222 6222 6222 6222 6222 6222 6284 6347 6347 6347 6347 6347 6284 6284 6284 6222 6222 6222 6222 6222 6222 6284 6347 6347 6347 6347 6284 6284 6222 6222 6222 6284 6347 6347 6412 6412 6347 6347 0 5765 5818 5818 5818 5818 5818 5818 5873 5873 5873 0 0 6101 5985 5928 5928 5928 5873 6042 6347 6347 6347 6412 6412 6412 6412 6412 6412 6412 6412 6412 6412 6412 6412 6412 6412 6412 6412 6347 6347 6284 6222 6222 6161 6161 6161 6161 6101 5985 5928 5818 5765 5713 5661 5661 5610 5610 5610 5610 5610 5561 5561 5561 5561 5610 5610 5610 5610 5610 5661 5661 5661 5661 5661 5661 5610 5610 5610 5610 5610 5610 5610 5610 5610 5610 5610 5610 5561 5512 5512 5464 5464 5464 5464 5512 5561 5610 5661 5713 5713 5765 5765 5818 5818 5818 5818 5818 5818 5873 5873 5873 5873 5928 5928 5928 5928 5928 5928 5873 5873 5873 5818 5818 5765 5765 5765 5765 5765 5765 5765 5765 5765 5765 5765 5765 5765 5765 5713 5713 5713 5713 5713 5713 5713 5713 5765 5765 5765 5765 5765 5818 5818 5818 5873 5873 5873 5873 5873 5928 5928 5985 5985 6042 6042 6042 6042 5985 5985 5928 5873 5873 5873 5873 5873 5873 5873 5873 5873 5873 5873 5873 5873 5873 5873 5873 5873 5873 5873 5873 5873 5873 5873 5873 5873 5928 5928 5985 6042 6042 6042 6042 6042 6042 6042 6042 6042 6042 6042 5985 5928 5873 5818 5818 5818 5818 5818 5818 5818 5873 5873 5873 5873 5928 5928 5985 6042 6042 6042 6042 6042 5985 5985 5985 5985 5985 6042 6042 6042 6042 6042 6042 6042 5985 5985 5985 5985 6042 6042 6042 6042 6042 6101 6101 6161 6161 6161 6161 6161 6161 6161 6101 6101 6101 6101 6161 6161 6222 6222 6222 6222 6222 6222 6222 6222 6222 6222 6222 6222 6161 6161 6161 6101 6101 6101 6101 6042 6042 6042 6042 6101 6101 6161 6161 6222 6222 6284 6222 6222 6222 6222 6222 6222 6222 6222 6222 6222 6161 6161 6161 6161 6161 6161 6222 6222 6222 6222 6222 6222 6284 6284 6284 6284 6347 6347 6412 6478 6546 6546 6546 6546 6546 6546 6546 6546 6546 6615 6615 6685 6757 6757 6830 6830 6830 6830 6830 6830 6830 6830 0 0 0 6905 6905 6905 6905 6905 6905 6905 6905 6905 6905 6905 6905 6905 6905 6905 6905 6905 6905 6905 6905 6905 0 0 0 0 0 0 0 0 0 0 0 0 0 0 0 0 0 0 0 0 0 0 0 0 0 0 0 0 0 0 0 0 0 0 0 0 0 0 0 0 0 0 0 0 0 0 0 0 0
    0 0 0 0 0 0 0 0 0 0 0 0 0 0 0 0 0 0 0 0 0 0 0 0 0 0 0 0 0 0 0 0 0 6161 6161 6222 6222 6222 6222 6222 6222 6222 6222 6222 6222 6222 6222 6222 6222 6222 6222 6222 6222 6222 6222 6222 6222 6222 6347 6347 6347 6347 6347 6347 6284 6284 6284 6222 6222 6161 6161 6161 6222 6284 6347 6347 6347 6347 6284 6284 6222 6222 6284 6284 6347 6347 6412 6347 6347 6347 0 0 5818 5818 5818 5818 5818 5873 5873 5873 5873 0 0 6347 6101 6042 6042 6042 5873 6222 6347 6347 6347 6347 6347 6347 6347 6412 6412 6412 6412 6412 6412 6412 6412 6412 6412 6412 6412 6412 6347 6284 6222 6161 6161 6161 6161 6161 6101 6042 5928 5818 5765 5713 5661 5661 5610 5610 5610 5610 5561 5561 5561 5561 5561 5561 5610 5610 5610 5610 5661 5661 5661 5661 5661 5661 5661 5610 5610 5610 5610 5610 5610 5610 5610 5610 5610 5561 5512 5464 5464 5464 5464 5464 5464 5512 5561 5610 5610 5661 5713 5713 5765 5765 5818 5818 5818 5818 5818 5818 5873 5873 5873 5873 5873 5873 5873 5928 5873 5873 5873 5818 5818 5818 5765 5765 5765 5765 5765 5765 5765 5765 5765 5765 5765 5765 5765 5713 5713 5713 5713 5713 5713 5713 5713 5713 5765 5765 5765 5765 5765 5765 5818 5818 5818 5873 5873 5873 5873 5873 5928 5928 5985 5985 6042 6042 6042 5985 5928 5928 5873 5873 5873 5873 5873 5873 5873 5873 5873 5873 5873 5873 5873 5873 5873 5873 5873 5873 5873 5873 5873 5873 5873 5873 5873 5928 5928 5985 5985 5985 6042 6042 6042 6042 6042 6042 6042 6042 5985 5985 5928 5873 5818 5765 5765 5765 5818 5818 5818 5873 5873 5873 5873 5928 5928 5985 6042 6042 6042 6042 6042 6042 5985 5985 5985 5985 6042 6042 6042 6042 6042 6042 6042 5985 5985 5985 5985 6042 6042 6042 6042 6042 6042 6101 6101 6101 6161 6161 6161 6161 6101 6101 6101 6101 6101 6161 6161 6222 6222 6222 6222 6222 6222 6222 6222 6222 6222 6222 6222 6161 6161 6161 6161 6101 6101 6101 6101 6042 6042 6042 6101 6101 6161 6222 6222 6284 6284 6222 6222 6222 6222 6222 6161 6161 6161 6161 6161 6161 6161 6161 6161 6161 6161 6222 6222 6222 6222 6222 6222 6222 6222 6284 6284 6284 6347 6347 6412 6478 6478 6478 6478 6546 6546 6546 6546 6546 6615 6615 6615 6685 6757 6830 6830 6830 6830 6830 6830 6830 6905 6905 6905 6830 6905 6905 6905 6905 6905 6830 6830 6830 6830 6830 6830 6830 6830 6905 6905 6905 6905 6905 6905 6905 6905 0 0 0 0 0 0 0 0 0 0 0 0 0 0 0 0 0 0 0 0 0 0 0 0 0 0 0 0 0 0 0 0 0 0 0 0 0 0 0 0 0 0 0 0 0 0 0 0 0
    0 0 0 0 0 0 0 0 0 0 0 0 0 0 0 0 0 0 0 0 0 0 0 0 0 0 0 0 0 0 0 0 0 6161 6161 6222 6222 6222 6222 6222 6222 6222 6222 6222 6222 6222 6222 6222 6222 6222 6222 6222 6222 6222 6222 6222 6222 6161 6284 6347 6347 6347 6347 6347 6284 6284 6284 6222 6222 6161 6161 6161 6161 6222 6347 6347 6347 6347 6347 6284 6284 6284 6284 6347 6347 6347 6347 6347 6347 6347 0 0 5818 5818 5818 5818 5873 5873 5873 5873 5873 0 0 0 0 0 0 0 0 6347 6347 6347 6347 6347 6347 6347 6347 6347 6412 6412 6412 6412 6412 6412 6412 6412 6412 6412 6412 6412 6347 6284 6222 6161 6161 6161 6161 6161 6161 6101 5985 5818 5765 5713 5661 5661 5661 5610 5610 5610 5610 5561 5561 5561 5561 5561 5610 5610 5610 5610 5661 5661 5661 5661 5661 5661 5661 5661 5610 5610 5610 5610 5610 5610 5610 5610 5661 5610 5561 5512 5464 5464 5464 5464 5464 5512 5512 5561 5610 5661 5661 5713 5713 5765 5765 5765 5818 5818 5818 5818 5818 5818 5818 5873 5873 5873 5873 5873 5873 5873 5818 5818 5818 5765 5765 5765 5765 5765 5765 5765 5765 5765 5713 5713 5713 5713 5713 5713 5713 5713 5713 5713 5713 5713 5713 5713 5765 5765 5765 5765 5765 5765 5818 5818 5818 5818 5818 5873 5873 5873 5928 5928 5985 5985 5985 5985 5985 5985 5928 5928 5873 5873 5873 5873 5873 5873 5873 5818 5818 5818 5873 5873 5873 5873 5873 5873 5873 5873 5873 5873 5873 5873 5873 5873 5873 5873 5928 5928 5985 5985 5985 6042 6042 6042 6042 6042 6042 6042 5985 5985 5928 5873 5818 5765 5765 5765 5818 5818 5818 5818 5873 5873 5873 5873 5928 5985 6042 6042 6042 6042 6042 6042 5985 5985 5985 5985 5985 6042 6042 6042 6042 6042 6042 5985 5985 5985 5985 5985 6042 6042 6042 6042 6042 6101 6101 6101 6101 6101 6101 6101 6101 6101 6101 6101 6101 6161 6161 6161 6161 6161 6222 6222 6222 6222 6222 6222 6222 6222 6222 6161 6161 6161 6161 6101 6101 6101 6101 6042 6042 6101 6101 6101 6161 6222 6284 6284 6284 6222 6222 6222 6222 6161 6161 6161 6161 6161 6161 6161 6161 6161 6161 6161 6161 6161 6222 6222 6222 6222 6222 6222 6222 6284 6284 6284 6284 6284 6347 6347 6412 6412 6478 6478 6478 6546 6546 6546 6546 6615 6685 6685 6757 6830 6830 6830 6830 6830 6830 6905 6905 6905 6905 6905 6830 6830 6830 6830 6830 6830 6830 6830 6830 6830 6830 6830 6830 6830 6905 6905 6905 6905 6905 6905 6905 6982 7141 0 0 0 0 0 0 0 0 0 0 0 0 0 0 0 0 0 0 0 0 0 0 0 0 0 0 0 0 0 0 0 0 0 0 0 0 0 0 0 0 0 0 0 0 0 0 0
    0 0 0 0 0 0 0 0 0 0 0 0 0 0 0 0 0 0 0 0 0 0 0 0 0 0 0 0 0 0 0 0 0 6161 6161 6222 6222 6222 6222 6222 6284 6222 6222 6222 6222 6222 6222 6222 6222 6222 6222 6222 6222 6222 6222 6222 6222 6161 0 6347 6347 6347 6347 6347 6347 6284 6284 6222 6161 6161 6101 6101 6101 6161 6222 6347 6347 6347 6347 6347 6284 6284 0 6347 6347 6347 6347 6347 6347 0 0 0 5818 5818 5818 5818 5818 0 0 0 0 0 0 0 0 0 0 0 0 6347 6347 6347 6347 6347 6347 6347 6347 6347 6347 6347 6347 6347 6412 6412 6412 6412 6412 6412 6412 6412 6347 6222 6161 6161 6161 6161 6161 6161 6161 6161 6042 5873 5713 5713 5713 5661 5661 5610 5610 5610 5610 5610 5561 5561 5561 5561 5561 5610 5610 5610 5610 5661 5661 5661 5661 5661 5661 5661 5610 5610 5610 5610 5610 5661 5661 5661 5661 5661 5561 5512 5464 5464 5417 5464 5464 5512 5512 5561 5610 5661 5661 5661 5713 5713 5713 5713 5765 5765 5818 5818 5818 5818 5818 5818 5873 5873 5873 5873 5873 5818 5818 5818 5765 5765 5765 5765 5713 5713 5713 5713 5713 5713 5713 5713 5713 5713 5713 5713 5713 5713 5713 5713 5713 5713 5713 5765 5765 5765 5818 5818 5818 5818 5818 5818 5818 5818 5818 5818 5873 5873 5873 5928 5928 5928 5985 5985 5985 5985 5928 5928 5873 5873 5873 5873 5818 5818 5818 5818 5818 5818 5818 5873 5873 5873 5873 5873 5873 5873 5873 5873 5873 5873 5873 5873 5873 5873 5873 5928 5928 5985 5985 5985 5985 6042 6042 6042 6042 6042 5985 5928 5928 5873 5818 5818 5765 5765 5818 5818 5818 5818 5818 5818 5873 5873 5928 5985 6042 6042 6042 6042 6042 5985 5985 5985 5985 5985 5985 5985 6042 6042 6042 6042 5985 5985 5985 5985 5985 5985 6042 6042 6042 6042 6042 6101 6101 6101 6101 6101 6101 6101 6101 6101 6101 6101 6101 6161 6161 6161 6161 6161 6161 6161 6161 6222 6222 6222 6222 6222 6161 6161 6161 6161 6161 6101 6101 6101 6101 6101 6042 6101 6101 6101 6161 6222 6284 6284 6284 6222 6222 6222 6222 6161 6161 6161 6161 6161 6161 6161 6161 6161 6161 6161 6161 6161 6222 6222 6222 6222 6222 6222 6222 6222 6284 6284 6284 6284 6284 6347 6347 6347 6412 6412 6478 6478 6546 6546 6546 6615 6685 6685 6757 6757 6830 6830 6830 6830 6905 6905 6905 6905 6905 6905 6830 6830 6830 6830 6830 6830 6830 6830 6830 6830 6830 6830 6830 6830 6905 6905 6905 6905 6905 6905 6905 6982 7061 7141 0 0 0 0 0 0 0 0 0 0 0 0 0 0 0 0 0 0 0 0 0 0 0 0 0 0 0 0 0 0 0 0 0 0 0 0 0 0 0 0 0 0 0 0 0 0
    0 0 0 0 0 0 0 0 0 0 0 0 0 0 0 0 0 0 0 0 0 0 0 0 0 0 0 0 0 0 0 0 0 6161 6161 6222 6222 6222 6284 6284 6284 6284 6222 6222 6222 6222 6222 6222 6222 6222 6222 6222 6222 6222 6222 6222 6222 6161 0 0 0 0 6284 6284 6284 6284 6284 6222 6161 6101 6101 6101 6101 6101 6042 0 0 0 0 0 0 0 0 6347 6347 6347 6347 6347 0 0 0 0 0 0 0 0 0 0 0 0 0 0 0 0 0 0 0 0 6347 6347 6347 6347 6347 6347 6347 6347 6347 6347 6347 6347 6347 6347 6347 6412 6412 6412 6412 6412 6412 6412 6412 6161 6161 6161 6161 6161 6161 6161 6222 6222 6161 5985 5713 5713 5713 5661 5661 5661 5610 5610 5610 5610 5610 5610 5561 5561 5561 5610 5610 5610 5610 5661 5661 5661 5661 5661 5661 5661 5610 5610 5610 5610 5610 5661 5661 5661 5661 5661 5610 5610 5561 5512 5464 5464 5464 5512 5512 5561 5610 5610 5661 5661 5661 5661 5661 5713 5713 5713 5765 5765 5765 5818 5818 5818 5818 5818 5818 5873 5818 5818 5765 5765 5765 5765 5713 5713 5713 5713 5713 5713 5713 5661 5713 5713 5713 5713 5713 5713 5713 5713 5713 5713 5713 5713 5713 5765 5765 5818 5818 5818 5818 5818 5818 5818 5818 5818 5818 5818 5873 5873 5873 5873 5928 5928 5928 5985 5985 5985 5928 5928 5873 5873 5873 5873 5818 5818 5818 5765 5765 5818 5818 5818 5873 5873 5873 5873 5873 5873 5873 5873 5873 5873 5873 5873 5873 5873 5873 5928 5928 5928 5985 5985 5985 5985 6042 6042 6042 6042 5985 5928 5928 5873 5818 5818 5818 5818 5818 5818 5818 5818 5818 5873 5873 5873 5928 5985 5985 6042 6042 6042 6042 5985 5985 5985 5985 5985 5985 5985 5985 5985 5985 5985 5985 5985 5985 5985 5985 5985 5985 6042 6042 6042 6042 6042 6101 6101 6101 6101 6101 6101 6101 6101 6101 6101 6101 6161 6161 6161 6161 6161 6161 6161 6161 6161 6161 6161 6161 6161 6161 6161 6161 6161 6161 6161 6101 6101 6101 6101 6101 6101 6101 6101 6161 6222 6284 6284 6284 6222 6222 6222 6222 6161 6161 6161 6161 6161 6161 6161 6161 6161 6161 6161 6161 6161 6222 6222 6222 6222 6222 6222 6222 6222 6222 6222 6284 6284 6284 6284 6284 6347 6347 6412 6412 6478 6478 6546 6546 6615 6685 6685 6757 6757 6757 6830 6830 6830 6830 6905 6905 6905 6905 6905 6905 6830 6830 6830 6830 6830 6830 6830 6757 6830 6830 6830 6830 6830 6830 6830 6905 6905 6905 6905 6905 6982 6982 7061 0 0 0 0 0 0 0 0 0 0 0 0 0 0 0 0 0 0 0 0 0 0 0 0 0 0 0 0 0 0 0 0 0 0 0 0 0 0 0 0 0 0 0 0 0 0
    0 0 0 0 0 0 0 0 0 0 0 0 0 0 0 0 0 0 0 0 0 0 0 0 0 0 0 0 0 0 0 0 0 6161 6161 6222 6284 6284 6284 6347 6284 6284 6284 6222 6222 6222 6222 6222 6222 6222 6222 6222 6222 6222 6222 6222 6222 6161 0 0 0 0 0 0 0 0 0 6101 6101 6101 6101 6101 6042 6042 6284 6982 6982 6982 6982 6905 0 0 0 0 0 0 0 0 0 0 0 0 0 0 0 0 0 0 0 0 0 0 0 0 0 0 0 6347 6347 6347 6347 6347 6347 6347 6347 6347 6347 6347 6347 6347 6347 6347 6347 6412 6412 6412 6412 6412 6412 6412 0 6161 6222 6161 6222 6222 6222 6222 6222 6222 6222 6101 5818 5713 5713 5713 5661 5661 5610 5610 5610 5610 5610 5610 5610 5610 5561 5561 5610 5610 5610 5661 5661 5661 5661 5661 5661 5661 5610 5610 5610 5610 5610 5661 5661 5661 5713 5661 5661 5610 5610 5561 5512 5512 5512 5512 5561 5561 5610 5610 5610 5610 5610 5610 5610 5661 5661 5713 5713 5713 5765 5765 5713 5713 5765 5765 5765 5765 5765 5765 5765 5765 5765 5713 5713 5713 5713 5713 5661 5661 5661 5661 5661 5661 5713 5713 5713 5713 5713 5713 5713 5713 5713 5713 5765 5765 5818 5818 5818 5818 5818 5818 5818 5818 5818 5818 5818 5818 5873 5873 5873 5873 5873 5928 5928 5928 5928 5928 5928 5928 5873 5873 5873 5873 5818 5818 5765 5765 5765 5765 5818 5818 5873 5873 5873 5873 5873 5873 5873 5873 5873 5873 5873 5873 5873 5873 5873 5873 5928 5928 5928 5985 5985 5985 5985 6042 6042 5985 5985 5928 5928 5873 5818 5818 5818 5818 5818 5818 5818 5873 5873 5873 5873 5873 5928 5985 5985 6042 6042 6042 6042 5985 5985 5985 5985 5985 5985 5985 5985 5985 5985 5985 5985 5985 5985 5985 5985 5985 5985 5985 6042 6042 6042 6042 6042 6101 6101 6101 6101 6101 6101 6101 6101 6101 6101 6161 6161 6161 6161 6161 6161 6161 6161 6161 6161 6161 6161 6161 6161 6161 6161 6161 6161 6161 6101 6101 6101 6101 6101 6101 6101 6101 6161 6222 6284 6284 6284 6222 6222 6222 6222 6161 6161 6161 6161 6161 6161 6161 6161 6161 6161 6161 6161 6161 6222 6222 6222 6222 6222 6222 6222 6222 6222 6222 6222 6284 6284 6284 6284 6347 6347 6347 6412 6412 6478 6546 6546 6615 6685 6685 6757 6757 6757 6757 6830 6830 6830 6905 6905 6905 6905 6905 6905 6905 6830 6830 6830 6830 6830 6757 6757 6757 6830 6830 6830 6830 6830 6830 6830 6830 6905 6905 6905 6905 6982 6982 6905 0 0 0 0 0 0 0 0 0 0 0 0 0 0 0 0 0 0 0 0 0 0 0 0 0 0 0 0 0 0 0 0 0 0 0 0 0 0 0 0 0 0 0 0 0
    0 0 0 0 0 0 0 0 0 0 0 0 0 0 0 0 0 0 0 0 0 0 0 0 0 0 0 0 0 0 0 0 0 6284 6284 6284 6347 6347 6347 6347 6284 6284 6284 6222 6222 6222 6222 6222 6222 6222 6222 6222 6222 6222 6222 6222 6222 6161 0 0 0 0 0 0 0 0 0 6101 6101 6101 6101 6101 6161 6284 6546 6982 6982 6982 6982 6982 6982 0 0 0 6347 6347 6347 6347 6347 6347 6347 6347 0 0 0 0 0 0 0 0 0 0 0 0 0 0 6412 6412 6412 6412 6412 6347 6347 6347 6347 6347 6347 6347 6347 6412 6412 6412 6412 6412 6412 6412 6412 6412 6412 6478 6478 6347 6284 6222 6222 6222 6222 6222 6222 6222 6222 6161 5985 5765 5713 5713 5713 5661 5661 5661 5610 5610 5610 5610 5610 5610 5610 5561 5610 5610 5610 5610 5661 5661 5661 5661 5661 5610 5610 5610 5610 5610 5610 5610 5661 5661 5661 5713 5713 5661 5610 5561 5561 5512 5512 5512 5561 5561 5561 5610 5610 5610 5610 5610 5610 5610 5610 5661 5661 5713 5713 5713 5713 5661 5661 5661 5713 5713 5765 5765 5765 5713 5713 5713 5713 5713 5713 5661 5661 5661 5661 5661 5661 5661 5661 5713 5713 5713 5713 5713 5713 5765 5765 5765 5765 5765 5818 5818 5818 5818 5818 5818 5818 5818 5818 5818 5818 5818 5818 5818 5873 5873 5873 5873 5928 5928 5928 5928 5928 5928 5928 5873 5873 5873 5818 5765 5765 5713 5713 5765 5765 5818 5873 5873 5873 5873 5873 5873 5873 5873 5928 5873 5873 5873 5873 5873 5873 5873 5928 5928 5928 5928 5985 5985 5985 5985 6042 5985 5985 5928 5928 5873 5873 5818 5818 5818 5818 5818 5873 5873 5873 5873 5873 5928 5928 5985 5985 6042 6042 6042 5985 5985 5985 5985 5985 5928 5928 5928 5985 5985 5985 5985 5985 5985 5985 5985 5928 5985 5985 5985 6042 6042 6042 6042 6042 6042 6101 6101 6101 6101 6101 6101 6101 6101 6101 6101 6101 6101 6101 6161 6161 6161 6161 6161 6161 6161 6161 6161 6161 6161 6161 6161 6161 6161 6161 6101 6101 6101 6101 6101 6101 6161 6161 6222 6222 6284 6284 6222 6222 6222 6222 6161 6161 6161 6161 6161 6161 6161 6161 6161 6161 6161 6161 6161 6222 6222 6222 6222 6222 6284 6284 6284 6284 6284 6284 6284 6284 6284 6284 6284 6347 6347 6347 6412 6478 6546 6546 6615 6685 6685 6757 6757 6757 6757 6757 6830 6830 6830 6905 6905 6905 6905 6905 6905 6830 6830 6830 6830 6757 6757 6757 6757 6830 6830 6830 6830 6830 6830 6830 6830 6905 6905 6905 6905 6905 6982 6905 0 0 0 0 0 0 0 0 0 0 0 0 0 0 0 0 0 0 0 0 0 0 0 0 0 0 0 0 0 0 0 0 0 0 0 0 0 0 0 0 0 0 0 0 0
    0 0 0 0 0 0 0 0 0 0 0 0 0 0 0 0 0 0 0 0 0 0 0 0 0 0 0 0 0 0 0 0 6347 6347 6347 6347 6347 6347 6347 6347 6347 6284 6284 6284 6222 6222 6222 6222 6222 6222 6222 6222 6222 6222 6284 6284 6284 6284 6284 6284 6284 6284 0 0 0 0 6161 6161 6101 6101 6161 6161 6222 6347 6546 6757 6830 6830 6905 6982 6982 0 0 6347 6347 6347 6347 6347 6347 6347 6347 6347 6412 6412 6478 6478 6546 6546 6546 6546 6546 6546 6546 6546 6546 6478 6478 6412 6412 6412 6412 6412 6347 6412 6412 6412 6412 6412 6412 6412 6412 6412 6412 6412 6412 6412 6347 6347 6412 6412 6412 6412 6412 6347 6284 6284 6284 6222 6222 6222 6161 6161 6042 5873 5765 5713 5713 5713 5661 5661 5661 5610 5610 5610 5610 5610 5610 5610 5610 5610 5610 5610 5661 5661 5661 5661 5610 5610 5610 5561 5561 5561 5561 5610 5610 5610 5661 5661 5661 5661 5661 5610 5561 5561 5512 5561 5561 5561 5561 5561 5610 5610 5561 5561 5610 5610 5610 5610 5661 5661 5661 5661 5661 5610 5610 5610 5661 5713 5765 5765 5713 5713 5713 5713 5713 5713 5661 5661 5661 5661 5661 5661 5661 5661 5661 5661 5713 5713 5713 5713 5765 5765 5765 5765 5765 5818 5818 5818 5818 5818 5818 5818 5818 5818 5818 5818 5818 5818 5818 5818 5818 5818 5873 5873 5873 5873 5928 5928 5928 5928 5928 5873 5873 5818 5818 5765 5713 5713 5713 5713 5765 5818 5873 5873 5873 5873 5873 5873 5873 5873 5928 5928 5928 5873 5873 5873 5873 5873 5928 5928 5928 5928 5928 5985 5985 5985 5985 5985 5985 5928 5928 5873 5873 5873 5818 5818 5873 5873 5873 5873 5873 5873 5873 5928 5928 5985 5985 5985 5985 5985 5985 5985 5985 5985 5985 5928 5928 5928 5928 5928 5985 5985 5985 5985 5985 5985 5928 5985 5985 5985 5985 6042 6042 6042 6042 6042 6101 6101 6101 6101 6101 6101 6101 6101 6101 6101 6101 6101 6101 6101 6101 6161 6161 6161 6161 6161 6161 6161 6161 6161 6161 6161 6161 6161 6161 6161 6101 6101 6101 6101 6101 6161 6161 6222 6222 6222 6222 6222 6222 6222 6222 6161 6161 6161 6161 6161 6161 6161 6161 6161 6161 6161 6161 6161 6222 6222 6222 6284 6284 6284 6284 6284 6284 6284 6284 6284 6284 6284 6284 6284 6347 6347 6347 6412 6478 6546 6546 6615 6685 6685 6685 6757 6757 6757 6757 6757 6830 6830 6830 6905 6905 6905 6905 6905 6830 6830 6830 6830 6757 6757 6757 6757 6757 6830 6830 6830 6830 6830 6830 6830 6830 6905 6905 6905 6905 6905 6905 0 0 0 0 0 0 0 0 0 0 0 0 0 0 0 0 0 0 0 0 0 0 0 0 0 0 0 0 0 0 0 0 0 0 0 0 0 0 0 0 0 0 0 0 0
    0 0 0 0 0 0 0 0 0 0 0 0 0 0 0 0 0 0 0 0 0 0 0 0 0 0 0 0 0 0 0 0 6347 6347 6347 6347 6347 6347 6347 6284 6284 6284 6284 6284 6222 6222 6222 6222 6222 6222 6222 6222 6284 6284 6284 6284 6284 6284 6284 6284 6284 6284 6284 6222 6222 6161 6161 6161 6101 6101 6161 6222 6284 6412 6546 6685 6685 6757 6757 6757 6757 0 6412 6412 6412 6347 6347 6347 6347 6347 6347 6412 6412 6412 6478 6478 6546 6546 6546 6546 6546 6546 6546 6546 6546 6478 6478 6412 6412 6412 6412 6412 6412 6412 6412 6412 6412 6412 6412 6412 6412 6412 6412 6412 6412 6412 6347 6347 6347 6412 6412 6478 6478 6412 6347 6347 6284 6284 6222 6222 6161 6161 6101 5928 5818 5765 5765 5713 5713 5661 5661 5661 5661 5610 5610 5610 5610 5610 5610 5610 5610 5610 5610 5610 5610 5610 5610 5610 5561 5561 5561 5561 5561 5561 5561 5610 5610 5610 5661 5610 5610 5561 5561 5561 5512 5512 5561 5561 5561 5561 5561 5561 5561 5561 5561 5610 5610 5610 5610 5610 5610 5610 5610 5561 5610 5610 5661 5713 5713 5713 5713 5713 5713 5713 5713 5661 5661 5661 5661 5661 5661 5661 5661 5661 5661 5661 5713 5713 5713 5713 5765 5765 5765 5765 5765 5818 5818 5818 5818 5818 5818 5818 5818 5818 5818 5818 5818 5818 5818 5818 5818 5818 5818 5818 5873 5873 5873 5873 5873 5873 5873 5873 5873 5818 5818 5765 5713 5713 5661 5713 5765 5818 5873 5873 5873 5873 5873 5873 5873 5873 5873 5928 5928 5928 5928 5873 5873 5873 5873 5928 5928 5928 5928 5928 5985 5985 5985 5985 5985 5928 5928 5873 5873 5873 5873 5873 5873 5873 5873 5873 5873 5928 5928 5928 5928 5985 5985 5985 5985 5985 5985 5985 5985 5985 5985 5928 5928 5928 5928 5928 5928 5985 5985 5985 5985 5928 5928 5928 5985 5985 5985 5985 6042 6042 6042 6042 6101 6101 6101 6101 6101 6101 6101 6101 6101 6101 6101 6042 6101 6101 6101 6101 6161 6161 6161 6161 6161 6161 6161 6161 6161 6161 6161 6161 6161 6161 6161 6161 6161 6161 6161 6161 6161 6222 6222 6222 6222 6222 6222 6222 6161 6161 6161 6161 6161 6161 6161 6161 6161 6161 6161 6161 6161 6222 6222 6222 6284 6284 6284 6284 6284 6284 6284 6284 6284 6284 6284 6284 6284 6284 6347 6347 6347 6412 6478 6546 6546 6615 6685 6685 6685 6757 6757 6757 6757 6757 6757 6830 6830 6830 6905 6905 6905 6905 6830 6830 6830 6830 6757 6757 6757 6757 6757 6757 6830 6830 6830 6830 6830 6830 6830 6905 6905 6905 6905 6905 6905 0 0 0 0 0 0 0 0 0 0 0 0 0 0 0 0 0 0 0 0 0 0 0 0 0 0 0 0 0 0 0 0 0 0 0 0 0 0 0 0 0 0 0 0 0
    0 0 0 0 0 0 0 0 0 0 0 0 0 0 0 0 0 0 0 0 0 0 0 0 0 0 0 0 0 0 0 0 6347 6347 6347 6347 6347 6284 6284 6284 6284 6284 6284 6284 6284 6222 6222 6222 6222 6284 6284 6284 6284 6284 6284 6284 6284 6284 6284 6284 6284 6284 6284 6222 6222 6161 6161 6161 6161 6161 6222 6222 6347 6478 6615 6615 6685 6685 6685 6685 6685 6478 6478 6412 6412 6412 6412 6412 6412 6412 6412 6412 6412 6412 6478 6478 6546 6546 6546 6546 6546 6546 6546 6546 6478 6478 6478 6412 6412 6412 6412 6412 6412 6412 6412 6412 6412 6412 6412 6412 6412 6478 6412 6412 6412 6412 6347 6347 6412 6412 6412 6478 6478 6478 6412 6412 6347 6284 6284 6222 6161 6161 6101 5985 5928 5818 5765 5765 5713 5713 5661 5661 5661 5661 5610 5610 5610 5610 5610 5610 5610 5610 5610 5610 5610 5610 5610 5561 5561 5561 5561 5512 5512 5561 5561 5561 5610 5610 5610 5610 5561 5561 5561 5561 5561 5561 5561 5561 5561 5561 5561 5561 5561 5561 5561 5610 5610 5610 5610 5610 5610 5561 5561 5561 5561 5610 5661 5713 5713 5713 5713 5713 5713 5713 5713 5661 5661 5661 5661 5661 5661 5661 5661 5661 5661 5661 5661 5713 5713 5713 5765 5765 5765 5765 5818 5818 5818 5818 5818 5818 5818 5818 5818 5818 5818 5818 5818 5765 5765 5765 5765 5765 5818 5818 5818 5818 5873 5873 5873 5873 5873 5873 5818 5818 5818 5765 5713 5661 5661 5713 5713 5765 5818 5873 5873 5873 5873 5873 5873 5873 5873 5873 5928 5928 5928 5873 5873 5873 5873 5873 5873 5873 5928 5928 5985 5985 5985 5985 5985 5928 5928 5873 5873 5873 5873 5873 5873 5873 5873 5873 5928 5928 5928 5928 5985 5985 5985 5985 5985 5985 5985 5985 5985 5985 5928 5928 5928 5928 5928 5928 5928 5928 5928 5928 5928 5928 5928 5928 5928 5928 5928 5985 5985 6042 6042 6042 6101 6101 6101 6101 6101 6101 6101 6101 6101 6042 6042 6042 6042 6042 6042 6101 6101 6101 6161 6161 6161 6161 6161 6161 6161 6161 6161 6161 6161 6161 6161 6161 6161 6161 6161 6161 6161 6161 6222 6222 6222 6222 6222 6161 6161 6161 6161 6161 6161 6161 6161 6161 6161 6161 6161 6161 6222 6222 6222 6284 6284 6284 6284 6284 6284 6284 6284 6284 6284 6284 6284 6284 6284 6284 6284 6347 6347 6412 6478 6478 6546 6615 6615 6685 6685 6685 6757 6757 6757 6757 6757 6830 6830 6830 6830 6830 6905 6905 6830 6830 6830 6830 6757 6757 6757 6757 6757 6757 6757 6757 6830 6830 6830 6830 6830 6830 6905 6905 6905 6905 6905 0 0 0 0 0 0 0 0 0 0 0 0 0 0 0 0 0 0 0 0 0 0 0 0 0 0 0 0 0 0 0 0 0 0 0 0 0 0 0 0 0 0 0 0 0
    0 0 0 0 0 0 0 0 0 0 0 0 0 0 0 0 0 0 0 0 0 0 0 0 0 0 0 0 0 0 0 0 6347 6347 6347 6284 6284 6284 6284 6284 6284 6284 6284 6284 6284 6222 6222 6284 6284 6284 6284 6284 6347 6347 6347 6284 6284 6284 6284 6284 6284 6284 6284 6222 6222 6161 6161 6161 6161 6161 6222 6222 6347 6478 6546 6546 6615 6615 6615 6615 6615 6478 6478 6478 6412 6412 6412 6412 6412 6412 6412 6412 6412 6412 6478 6478 6546 6546 6546 6546 6546 6546 6546 6546 6478 6478 6478 6478 6412 6412 6412 6412 6412 6412 6412 6412 6412 6412 6412 6412 6478 6478 6478 6412 6412 6412 6347 6347 6412 6412 6478 6478 6478 6478 6478 6412 6412 6284 6284 6222 6161 6161 6101 6042 5928 5873 5818 5818 5765 5713 5713 5661 5661 5661 5661 5610 5610 5610 5610 5610 5610 5610 5610 5610 5610 5561 5561 5561 5561 5561 5512 5512 5512 5512 5561 5561 5561 5610 5610 5610 5561 5561 5561 5561 5561 5561 5561 5561 5561 5561 5561 5561 5561 5561 5561 5610 5610 5610 5610 5610 5610 5561 5561 5561 5561 5610 5661 5661 5713 5713 5713 5713 5713 5713 5661 5661 5661 5661 5661 5661 5661 5661 5661 5661 5661 5661 5661 5713 5713 5765 5765 5765 5765 5765 5765 5818 5818 5818 5818 5818 5818 5818 5818 5818 5765 5765 5765 5765 5765 5765 5765 5765 5765 5765 5818 5818 5818 5873 5873 5873 5873 5873 5818 5818 5765 5765 5713 5661 5661 5713 5713 5765 5818 5818 5818 5818 5873 5873 5873 5873 5873 5873 5928 5928 5928 5873 5873 5873 5873 5873 5873 5873 5928 5928 5928 5985 5985 5985 5928 5928 5928 5873 5873 5873 5873 5873 5873 5873 5873 5873 5928 5928 5928 5928 5985 5985 5985 5985 5985 5985 5985 5985 5985 5985 5928 5928 5928 5928 5928 5928 5928 5928 5928 5928 5928 5928 5928 5928 5928 5928 5928 5928 5985 5985 6042 6042 6101 6101 6101 6101 6101 6101 6101 6101 6101 6042 6042 6042 6042 6042 6042 6042 6101 6101 6101 6101 6101 6161 6161 6161 6161 6161 6161 6161 6161 6161 6161 6161 6161 6161 6161 6161 6161 6161 6161 6222 6222 6222 6222 6222 6222 6222 6222 6222 6222 6222 6161 6161 6161 6161 6161 6161 6222 6222 6284 6284 6284 6284 6284 6284 6284 6284 6284 6284 6284 6284 6284 6284 6284 6284 6284 6347 6347 6412 6412 6478 6546 6615 6615 6685 6685 6757 6757 6757 6757 6757 6830 6830 6830 6830 6830 6830 6830 6830 6830 6830 6830 6830 6757 6757 6757 6757 6757 6757 6757 6757 6830 6830 6830 6830 6830 6830 6905 6905 6905 6905 6905 6830 0 0 0 0 0 0 0 0 0 0 0 0 0 0 0 0 0 0 0 0 0 0 0 0 0 0 0 0 0 0 0 0 0 0 0 0 0 0 0 0 0 0 0 0
    0 0 0 0 0 0 0 0 0 0 0 0 0 0 0 0 0 0 0 0 0 0 0 0 0 0 0 0 0 0 0 0 6347 6347 6284 6284 6284 6284 6284 6284 6284 6284 6284 6284 6284 6284 6284 6284 6284 6284 6347 6347 6347 6347 6347 6284 6284 6284 6284 6284 6284 6284 6284 6222 6222 6161 6161 6161 6161 6161 6161 6222 6347 6412 6478 6478 6478 6478 6478 6546 6546 6478 6478 6478 6412 6412 6412 6412 6412 6412 6412 6412 6412 6412 6412 6478 6478 6546 6546 6546 6546 6546 6546 6478 6478 6478 6478 6478 6412 6412 6412 6412 6412 6412 6412 6412 6412 6412 6412 6478 6478 6478 6478 6412 6412 6412 6347 6347 6412 6412 6478 6478 6478 6478 6478 6478 6412 6347 6284 6222 6161 6161 6101 6042 5985 5928 5873 5818 5765 5765 5713 5661 5661 5661 5661 5610 5610 5610 5610 5610 5610 5610 5610 5610 5561 5561 5561 5561 5561 5512 5512 5512 5512 5512 5561 5561 5561 5561 5610 5610 5610 5561 5561 5561 5561 5561 5561 5610 5610 5610 5610 5561 5561 5561 5561 5610 5610 5610 5610 5610 5561 5561 5561 5561 5561 5610 5661 5661 5713 5713 5713 5713 5713 5713 5661 5661 5661 5661 5661 5661 5661 5661 5661 5661 5661 5661 5713 5713 5713 5765 5765 5765 5765 5765 5765 5765 5765 5818 5818 5818 5818 5818 5818 5765 5765 5765 5765 5765 5765 5765 5765 5765 5765 5765 5765 5818 5818 5818 5818 5818 5818 5818 5818 5818 5765 5765 5713 5713 5713 5713 5713 5765 5765 5818 5818 5818 5818 5818 5873 5873 5873 5873 5873 5928 5873 5873 5873 5873 5873 5873 5873 5873 5873 5928 5928 5928 5985 5985 5928 5928 5928 5873 5873 5873 5873 5873 5873 5873 5873 5873 5928 5928 5928 5928 5928 5928 5928 5928 5928 5928 5985 5985 5985 5985 5928 5928 5928 5928 5928 5928 5928 5985 5985 5985 5985 5928 5928 5928 5928 5928 5873 5873 5928 5985 5985 6042 6042 6101 6101 6101 6101 6101 6101 6101 6101 6101 6042 6042 6042 6042 6042 6042 6042 6101 6101 6101 6101 6101 6161 6161 6161 6161 6161 6161 6161 6161 6161 6161 6161 6161 6161 6161 6161 6161 6161 6161 6161 6161 6222 6222 6222 6222 6222 6222 6222 6222 6222 6222 6161 6161 6161 6222 6222 6284 6284 6284 6284 6284 6284 6284 6347 6347 6347 6347 6347 6347 6347 6284 6284 6284 6284 6347 6347 6412 6412 6478 6546 6546 6615 6615 6685 6757 6757 6757 6830 6830 6830 6830 6830 6830 6830 6830 6830 6830 6830 6830 6830 6830 6757 6757 6757 6757 6757 6757 6757 6757 6757 6830 6830 6830 6830 6830 6830 6830 6830 6830 6830 6830 0 0 0 0 0 0 0 0 0 0 0 0 0 0 0 0 0 0 0 0 0 0 0 0 0 0 0 0 0 0 0 0 0 0 0 0 0 0 0 0 0 0 0 0
    0 0 0 0 0 0 0 0 0 0 0 0 0 0 0 0 0 0 0 0 0 0 0 0 0 0 0 0 0 0 0 0 6347 6347 6284 6284 6284 6284 6222 6222 6222 6222 6222 6284 6284 6284 6284 6284 6284 6347 6347 6347 6347 6347 6347 6284 6347 6347 6347 6284 6284 6284 6222 6222 6161 6161 6161 6161 6161 6161 6161 6222 6284 6412 6478 6478 6478 6412 6412 6412 6412 6478 6478 6478 6478 6478 6412 6412 6412 6412 6412 6412 6412 6412 6412 6478 6478 6478 6478 6478 6546 6546 6478 6478 6478 6478 6478 6412 6412 6412 6412 6412 6412 6412 6412 6412 6412 6412 6478 6478 6478 6478 6412 6412 6412 6412 6347 6412 6412 6412 6478 6478 6478 6478 6478 6478 6478 6412 6284 6222 6222 6161 6101 6101 6042 5985 5928 5928 5818 5765 5713 5713 5713 5661 5661 5661 5610 5610 5610 5610 5610 5610 5610 5610 5561 5561 5561 5561 5561 5561 5561 5512 5512 5561 5561 5561 5561 5610 5610 5610 5610 5610 5610 5610 5610 5610 5610 5610 5610 5610 5610 5610 5610 5561 5561 5610 5610 5610 5610 5610 5561 5561 5561 5561 5561 5610 5661 5661 5713 5713 5713 5713 5661 5661 5661 5661 5661 5661 5661 5661 5661 5661 5661 5661 5661 5661 5713 5713 5765 5765 5765 5765 5765 5765 5765 5765 5765 5765 5818 5818 5818 5765 5765 5765 5765 5765 5765 5713 5713 5713 5713 5765 5765 5765 5765 5765 5818 5818 5818 5818 5818 5818 5765 5765 5765 5765 5713 5713 5713 5713 5713 5713 5765 5765 5765 5818 5818 5818 5818 5873 5873 5873 5873 5873 5873 5873 5873 5873 5873 5873 5873 5873 5873 5873 5928 5928 5928 5928 5928 5928 5928 5873 5873 5873 5873 5873 5873 5873 5873 5928 5928 5928 5928 5928 5928 5928 5928 5928 5928 5928 5928 5928 5928 5928 5928 5928 5928 5928 5928 5928 5985 5985 5985 5985 5985 5928 5928 5928 5928 5873 5873 5873 5873 5928 5985 6042 6042 6101 6101 6101 6101 6101 6101 6101 6101 6101 6101 6042 6042 6042 6042 6042 6042 6101 6101 6101 6101 6101 6101 6161 6161 6161 6161 6161 6161 6161 6161 6161 6161 6161 6161 6161 6161 6161 6161 6161 6161 6161 6161 6222 6222 6222 6222 6222 6222 6222 6222 6222 6222 6161 6222 6222 6284 6284 6347 6347 6347 6284 6284 6284 6284 6347 6347 6347 6347 6347 6347 6347 6284 6284 6347 6347 6347 6412 6412 6478 6478 6546 6546 6615 6685 6757 6757 6830 6830 6830 6830 6830 6830 6830 6830 6830 6830 6830 6830 6830 6830 6830 6757 6757 6757 6757 6757 6757 6757 6757 6757 6830 6830 6830 6830 6830 6830 6830 6830 6830 6830 6830 0 0 0 0 0 0 0 0 0 0 0 0 0 0 0 0 0 0 0 0 0 0 0 0 0 0 0 0 0 0 0 0 0 0 0 0 0 0 0 0 0 0 0 0
    0 0 0 0 0 0 0 0 0 0 0 0 0 0 0 0 0 0 0 0 0 0 0 0 0 0 0 0 0 0 0 0 6347 6347 6284 6284 6284 6222 6222 6222 6222 6222 6222 6284 6284 6284 6284 6284 6347 6347 6347 6347 6347 6347 6347 6347 6347 6347 6347 6284 6284 6284 6222 6222 6161 6161 6161 6161 6101 6101 6161 6161 6222 6347 6478 6478 6478 6412 6412 6412 6347 6412 6478 6478 6478 6478 6412 6412 6412 6412 6412 6412 6412 6412 6412 6412 6412 6478 6478 6478 6478 6478 6478 6478 6478 6412 6412 6412 6412 6412 6412 6412 6412 6412 6412 6412 6412 6412 6412 6412 6412 6412 6412 6412 6412 6412 6412 6412 6412 6412 6478 6478 6478 6546 6546 6546 6546 6412 6347 6284 6222 6161 6161 6101 6042 6042 5985 5985 5873 5818 5765 5713 5713 5713 5661 5661 5661 5610 5610 5610 5610 5610 5610 5610 5610 5561 5561 5561 5561 5561 5561 5561 5561 5561 5561 5610 5610 5610 5661 5661 5661 5661 5661 5661 5661 5661 5661 5661 5661 5661 5661 5661 5610 5610 5610 5610 5610 5610 5610 5610 5561 5561 5561 5561 5610 5610 5661 5661 5661 5661 5661 5661 5661 5661 5661 5661 5661 5661 5661 5661 5661 5661 5661 5661 5661 5713 5713 5713 5765 5765 5765 5765 5765 5765 5765 5765 5765 5765 5765 5765 5765 5765 5765 5765 5765 5713 5713 5713 5713 5713 5713 5713 5765 5765 5765 5765 5765 5818 5818 5818 5818 5765 5765 5765 5765 5713 5713 5713 5713 5713 5713 5713 5765 5765 5765 5765 5818 5818 5818 5873 5873 5873 5873 5873 5873 5873 5873 5873 5818 5818 5818 5873 5873 5873 5928 5928 5928 5928 5928 5928 5873 5873 5873 5873 5873 5873 5873 5873 5928 5928 5928 5928 5928 5928 5928 5928 5928 5928 5928 5928 5928 5928 5928 5928 5928 5928 5928 5928 5985 5985 5985 5985 5985 5985 5985 5928 5928 5928 5873 5873 5818 5818 5873 5873 5928 5985 6042 6101 6101 6101 6101 6161 6161 6161 6161 6101 6101 6101 6101 6042 6042 6042 6042 6042 6101 6101 6101 6101 6101 6161 6161 6161 6161 6161 6161 6161 6161 6161 6161 6161 6161 6161 6161 6161 6161 6161 6161 6161 6161 6222 6222 6222 6222 6222 6284 6284 6222 6222 6222 6222 6222 6222 6284 6284 6347 6347 6347 6284 6284 6284 6284 6347 6347 6347 6347 6347 6347 6347 6347 6347 6347 6347 6347 6412 6412 6478 6478 6546 6546 6615 6615 6685 6757 6830 6830 6830 6830 6830 6830 6830 6830 6757 6757 6757 6757 6757 6757 6757 6757 6757 6757 6757 6757 6757 6757 6757 6757 6757 6830 6830 6830 6830 6830 6830 6830 6830 6830 6830 0 0 0 0 0 0 0 0 0 0 0 0 0 0 0 0 0 0 0 0 0 0 0 0 0 0 0 0 0 0 0 0 0 0 0 0 0 0 0 0 0 0 0 0
    0 0 0 0 0 0 0 0 0 0 0 0 0 0 0 0 0 0 0 0 0 0 0 0 0 0 0 0 0 0 0 0 6347 6284 6284 6284 6284 6222 6222 6222 6222 6222 6222 6284 6284 6284 6284 6347 6347 6347 6347 6347 6347 6347 6347 6284 6347 6347 6284 6284 6284 6222 6222 6222 6161 6161 6161 6161 6101 6101 6101 6101 6161 6284 6412 6412 6412 6412 6412 6347 6347 6347 6412 6412 6412 6478 6478 6412 6412 6412 6412 6412 6412 6347 6347 6347 6412 6412 6412 6412 6478 6478 6478 6478 6412 6412 6412 6412 6412 6412 6412 6412 6412 6412 6412 6412 6412 6412 6412 6412 6412 6412 6412 6412 6412 6412 6412 6412 6412 6478 6478 6478 6546 6546 6546 6546 6546 6478 6412 6347 6284 6222 6161 6101 6101 6042 6042 6042 5928 5873 5818 5765 5765 5713 5713 5661 5661 5661 5610 5610 5610 5610 5610 5610 5610 5610 5610 5610 5610 5610 5610 5610 5610 5610 5610 5610 5661 5661 5713 5713 5713 5713 5713 5713 5713 5713 5713 5713 5713 5713 5661 5661 5661 5610 5610 5610 5610 5610 5610 5561 5561 5561 5561 5561 5610 5610 5610 5661 5661 5661 5661 5661 5661 5661 5661 5661 5661 5661 5661 5661 5610 5610 5610 5661 5661 5713 5713 5765 5765 5765 5765 5765 5765 5765 5765 5765 5765 5765 5765 5765 5765 5765 5765 5713 5713 5713 5713 5713 5713 5713 5713 5713 5713 5765 5765 5765 5765 5765 5765 5765 5765 5765 5765 5765 5713 5713 5713 5713 5713 5713 5713 5713 5713 5765 5765 5765 5765 5818 5818 5818 5818 5873 5873 5873 5873 5873 5818 5818 5818 5818 5818 5818 5873 5873 5873 5928 5928 5928 5928 5928 5873 5873 5873 5873 5873 5873 5873 5928 5928 5928 5928 5928 5928 5928 5928 5928 5928 5928 5928 5928 5928 5928 5928 5928 5928 5928 5928 5985 6042 6042 6042 6042 5985 5985 5985 5928 5928 5873 5873 5818 5818 5818 5818 5873 5928 5985 6042 6101 6101 6101 6101 6161 6161 6161 6161 6161 6161 6101 6101 6101 6101 6101 6042 6042 6042 6101 6101 6101 6101 6101 6161 6161 6161 6101 6101 6101 6161 6161 6161 6161 6161 6161 6161 6161 6161 6161 6161 6161 6161 6222 6222 6222 6222 6284 6284 6284 6284 6222 6222 6222 6222 6284 6284 6347 6347 6347 6347 6284 6284 6284 6284 6284 6347 6347 6347 6347 6347 6347 6347 6347 6347 6347 6347 6412 6412 6478 6478 6478 6546 6546 6615 6685 6830 6830 6830 6830 6830 6830 6830 6830 6757 6757 6757 6757 6757 6757 6757 6757 6757 6757 6757 6757 6757 6757 6757 6757 6757 6757 6757 6830 6830 6830 6830 6830 6830 6830 6830 6830 6757 0 0 0 0 0 0 0 0 0 0 0 0 0 0 0 0 0 0 0 0 0 0 0 0 0 0 0 0 0 0 0 0 0 0 0 0 0 0 0 0 0 0 0</data></DepthMat>
</opencv_storage>
