<?xml version="1.0"?>
<opencv_storage>
<DepthMat type_id="opencv-matrix">
  <rows>46</rows>
  <cols>512</cols>
  <dt>w</dt>
  <data>
    0 0 0 0 0 0 0 0 0 0 0 0 0 0 0 0 0 0 0 0 0 0 0 0 0 0 0 0 0 0 0 0 5985 5985 5985 5985 5985 5985 5985 5985 5985 5985 5985 5985 5985 5985 6042 6042 6042 6042 6042 6042 6042 6101 6101 6101 6101 6101 6101 6042 6042 6042 6042 6042 6042 6042 6042 6042 6042 6042 6101 6101 6161 6101 6101 6101 6042 6042 6042 6101 6101 6101 6042 6042 6042 6042 6101 6101 6101 6101 6101 6101 6042 6042 6101 6101 6101 6101 6101 6101 6101 6101 6101 6101 6101 6101 6101 6101 6161 6161 6222 6222 6284 6284 6284 6284 6284 6222 6222 6222 0 6546 6546 6546 6546 6546 6546 6546 6546 6546 6546 6546 6546 6546 6546 6615 6615 6615 6615 6685 0 0 6284 6284 6284 6222 6284 6222 6222 6284 6284 6284 6347 6347 6412 6412 6478 6478 6412 6478 6478 6478 6478 6478 6478 6478 6478 6478 6478 6478 6478 6478 6478 6412 6412 6478 6478 6478 6478 6546 6546 6546 6546 6546 6546 6546 6478 6478 6478 6478 6478 6478 6478 6478 6478 6478 6478 6478 6546 6546 6546 6546 6546 6546 6478 6478 6478 6478 6478 6478 6412 6412 6412 6412 6412 6412 6412 6478 6478 6478 6546 6546 6615 6615 6685 6685 6685 6685 6685 6685 6685 6615 6615 6615 6615 6615 6615 6546 6546 6546 6546 6546 6478 6478 6478 6478 6478 6412 6412 6284 6284 6284 6284 6284 6284 0 0 0 0 6284 6284 6347 6347 6347 6347 6347 6347 6347 6347 6412 6412 6412 6478 6685 6830 6757 6685 6685 6685 6546 6546 6546 6546 6412 6412 6412 6412 6412 6478 6478 6546 6615 6615 6615 6615 6615 6615 6615 6615 6546 6546 6478 6478 6478 6546 6546 6685 6830 7061 7061 7061 7061 6982 6982 6982 6982 6982 6982 6982 6982 0 7307 7307 7307 7307 7307 7307 7307 7223 7223 7223 7141 7141 7141 7141 7141 7061 0 0 0 0 0 0 0 0 0 0 0 0 0 0 0 0 0 0 0 0 0 0 0 0 0 0 0 0 0 0 0 0 0 0 0 0 0 0 0 0 0 0 0 0 0 0 0 0 0 0 8379 8379 8379 8379 8161 7954 7663 7393 7141 7141 7141 7061 7855 8379 8379 8379 8379 8379 8379 8379 8492 8608 8608 8728 8851 8977 9107 9241 9379 9379 9521 9521 9521 9521 9521 9521 9521 9521 9521 9521 0 9975 9668 9668 9668 9521 9521 9668 9668 9668 9668 9819 9819 9819 9819 9819 9819 9819 9819 9819 9819 9819 9975 9975 9975 0 0 0 0 0 0 0 0 0 0 0 0 0 0 0 0 0 0 9819 9819 9819 9819 9975 9975 9975 9975 9975 9975 9975 9819 9521 9241 9379 9379 9241 9521 10473 0 0 0 0 0 0 0 0 0 0 0 0 0 0 0 0 0 0 0 0 0 0 0
    0 0 0 0 0 0 0 0 0 0 0 0 0 0 0 0 0 0 0 0 0 0 0 0 0 0 0 0 0 0 0 0 5985 5985 5985 5985 5985 5985 5985 5985 5985 5985 5985 5985 5985 5985 6042 6042 6042 6042 6042 6042 6042 6042 6101 6101 6101 6101 6101 6042 6042 6042 6042 6042 6042 6042 6042 6042 6042 6042 6042 6101 6101 6101 6101 6042 6042 6042 6042 6042 6042 6042 6042 6042 6042 6042 6101 6101 6101 6101 6042 6042 6042 6042 6042 6042 6101 6101 6101 6101 6101 6101 6101 6101 6101 6101 6101 6101 6101 6161 6161 6222 6222 6284 6222 6222 6222 6222 6222 6222 0 6546 6546 6546 6546 6546 6546 6546 6478 6478 6478 6546 6546 6546 6546 6615 6615 6615 6615 6685 0 0 6284 6284 6284 6222 6284 6222 6222 6222 6222 6222 6284 6347 6347 6412 6412 6412 6412 6478 6478 6478 6478 6478 6478 6478 6478 6478 6478 6478 6478 6478 6478 6478 6412 6412 6478 6478 6478 6478 6478 6478 6478 6478 6478 6478 6478 6478 6478 6478 6478 6478 6478 6478 6478 6478 6478 6478 6546 6546 6546 6546 6546 6546 6478 6478 6478 6478 6478 6478 6412 6412 6412 6412 6412 6412 6412 6478 6478 6478 6546 6546 6615 6615 6615 6685 6685 6685 6685 6685 6615 6615 6615 6615 6615 6546 6546 6546 6546 6546 6546 6546 6478 6478 6478 6478 6478 6412 6412 0 0 0 0 0 0 0 0 0 0 0 6412 6412 6412 6412 6412 6412 6347 6347 6347 6478 6478 6615 6757 6982 7061 6982 6830 6757 6757 6615 6615 6546 6546 6478 6412 6412 6412 6412 6478 6478 6546 6615 6615 6615 6615 6615 6615 6615 6615 6546 0 6478 6478 6478 6546 6615 6685 6905 7061 7061 7061 7061 6982 6982 6982 6982 6982 6982 6982 6982 0 0 7223 7223 7223 7223 7223 7223 7223 7223 7223 7141 7141 7141 7141 7141 7061 7061 0 0 0 0 0 0 0 0 0 0 0 0 0 0 0 0 0 0 0 0 0 0 0 0 0 0 0 0 0 0 0 0 0 0 0 0 0 0 0 0 0 0 0 0 0 0 0 0 0 8379 8379 8379 8268 8161 7855 7663 7393 7223 7141 7141 7061 7663 8379 8379 8379 8379 8379 8379 8492 8492 8608 8608 8728 8851 8977 9107 9241 9379 9521 9521 9668 9668 9668 9668 9668 9668 9668 9819 9975 10135 10135 9819 9668 9668 9668 9521 9521 9668 9668 9668 9668 9668 9819 9819 9819 9819 9819 9819 9819 9819 9975 9975 9975 9975 0 0 0 0 0 0 0 0 0 0 0 0 0 0 0 0 0 0 9819 9819 9819 9819 9975 9975 9975 9975 9975 9975 9975 9975 9668 9379 9521 9379 9241 9379 9819 8728 0 0 0 0 0 0 0 0 0 0 0 0 0 0 0 0 0 0 0 0 0 0
    0 0 0 0 0 0 0 0 0 0 0 0 0 0 0 0 0 0 0 0 0 0 0 0 0 0 0 0 0 0 0 0 5985 5985 5985 5985 5985 5985 5985 5985 5985 6042 6042 6042 6042 6042 6042 6042 6042 6042 6042 6042 6042 6042 6042 6042 6042 6042 6042 6042 6042 6042 6042 6042 6042 6042 6042 6042 6042 6042 6042 6042 6101 6101 6101 6042 6042 6042 6042 6042 6042 6042 6042 6042 6042 6042 6101 6101 6042 6042 6042 6042 6042 6042 6042 6042 6042 6101 6101 6101 6101 6101 6101 6101 6101 6101 6101 6101 6101 6161 6161 6161 6222 6222 6222 6222 6222 6222 6222 6161 0 0 5873 5873 6042 6161 6222 6412 6478 6478 6478 6478 6546 6546 6546 6615 6615 6615 6615 6685 0 0 6284 6284 6222 6222 6222 6222 6222 6222 6222 6222 6222 6222 6284 6347 6412 6412 6412 6478 6478 6478 6478 6478 6478 6478 6478 6478 6478 6478 6478 6478 6478 6478 6412 6412 0 0 6478 6478 6478 6478 6478 6478 6478 6478 6478 6478 6478 6478 6478 6478 6478 6478 6478 6478 6478 6478 6546 6546 6546 6546 6546 6546 6478 6478 6478 6478 6478 6478 6412 6412 6412 6412 6412 6412 6412 6412 6412 6478 6478 6546 6546 6615 6615 6615 6615 6615 6615 6615 6615 6615 6615 6615 6546 6546 6546 6546 6546 6546 6546 6478 6478 6478 6478 6478 6478 6478 6478 0 0 0 0 6347 6347 6347 6347 6347 6347 6412 6412 6412 6412 6412 6412 6412 6412 6412 6412 6546 6615 6757 6982 7061 7061 6982 6905 6830 6830 6757 6757 6685 6615 6546 6478 6412 6412 6412 6478 6478 6546 6615 6615 6615 6615 6615 6615 6615 6615 0 0 6478 6478 6478 6615 6685 6757 6905 7061 7061 6982 6982 6982 6905 6905 6982 6982 6982 6982 6982 0 7061 7061 7141 7141 7141 7141 7223 7223 7141 7141 7141 7141 7141 7141 7141 7061 7061 0 0 0 0 0 0 0 0 0 0 0 0 0 0 0 0 0 0 0 0 0 0 0 0 0 0 0 0 0 0 0 0 0 0 0 0 0 0 0 0 0 0 0 0 0 0 0 0 0 8056 8056 8161 8056 7954 7758 7571 7393 7223 7223 7223 7061 7758 8268 8379 8379 8379 8379 8492 8492 8492 8608 8608 8728 8851 8977 9107 9241 9379 9521 9668 9668 9819 9819 9668 9668 9819 9819 9975 10135 10135 9975 9819 9819 9668 9668 9521 9521 9668 9668 9668 9668 9668 9668 9819 9819 9819 9819 9819 9819 9819 9975 9975 9975 9975 0 0 0 0 0 0 0 0 0 0 0 0 0 0 0 0 0 0 9819 9819 9819 9819 9975 9975 9975 9975 9975 9975 9975 9975 9819 9668 9241 8977 8851 8728 8728 8608 8492 0 0 0 0 0 0 0 0 0 0 0 0 0 0 0 0 0 0 0 0 0
    0 0 0 0 0 0 0 0 0 0 0 0 0 0 0 0 0 0 0 0 0 0 0 0 0 0 0 0 0 0 0 0 5985 5985 5985 5985 5985 5985 5985 5985 6042 6042 6042 6042 6042 6042 6042 6042 6042 6042 6042 6042 6042 6042 6042 6042 6042 6042 6042 6042 6042 6042 6042 6042 6042 6042 6042 6042 6042 6042 6042 6042 6042 6042 6042 6042 6042 6042 5985 6042 6042 6042 6042 6042 6042 6042 6042 6042 6042 6042 6042 6042 6042 6042 6042 6042 6042 6042 6101 6101 6101 6101 6101 6101 6101 6101 6042 6042 6101 6101 6161 6161 6222 6222 6222 6222 6222 6161 6161 6161 0 0 5873 5873 5873 5985 6101 6222 6347 6412 6478 6478 6478 6478 6546 6685 6685 6685 6685 6905 0 0 6284 6222 6222 6222 6222 6222 6222 6161 6161 6161 6222 6222 6222 6284 6347 6347 6412 6478 6478 6478 6478 6478 6478 6478 6478 6546 6546 6546 6546 6478 6478 6478 6412 6347 0 0 6478 6478 6478 6478 6478 6478 6478 6478 6478 6478 6478 6478 6546 6546 6546 6546 6546 6546 6546 6546 6546 6546 6546 6546 6546 6546 6478 6478 6478 6478 6478 6478 6478 6412 6412 6412 6412 6412 6412 6347 6347 6347 6347 6412 6478 6478 6546 6546 6615 6615 6615 6615 6615 6615 6615 6546 6546 6546 6546 6546 6546 6478 6478 6478 6478 6478 6478 6478 6478 6478 6546 6546 0 0 6347 6347 6347 6347 6347 6347 6347 6412 6412 6412 6412 6412 6412 6412 6412 6412 6478 6685 6757 6830 6905 6905 6830 6830 6905 6905 6982 7061 7061 6830 6685 6546 6546 6412 6412 6412 6478 6478 6546 6546 6615 6615 6615 6615 6615 6615 6615 0 0 6478 6478 6478 6685 6685 6830 6905 6982 6982 6982 6982 6905 6905 6905 6905 6905 6982 6982 0 0 7061 7061 7061 7061 7141 7141 7141 7141 7141 7141 7141 7141 7141 7141 7061 7061 7061 0 0 0 0 0 0 0 0 0 0 0 0 0 0 0 0 0 0 0 0 0 0 0 0 0 0 0 0 0 0 0 0 0 0 0 0 0 0 0 0 0 0 0 0 0 0 0 0 7061 7663 7758 7758 7855 7758 7663 7571 7481 7393 7393 7481 7663 8056 8161 8268 8268 8379 8379 8492 8492 8608 8608 8608 8728 8728 8851 8977 9107 9379 9521 9668 9819 9819 9819 9819 9819 9975 9975 10135 10135 9975 9975 9819 9819 9668 9668 9668 9521 9668 9668 9668 9668 9668 9668 9668 9819 9819 9819 9819 9819 9819 9819 9975 9975 9975 0 0 0 0 0 0 9107 9107 9107 9107 9107 9107 9107 0 0 0 0 0 9819 9819 9819 9819 9819 9819 9975 9975 9975 9975 9975 9975 9975 9668 9241 8977 8728 8728 8608 8608 8492 8492 0 0 0 0 0 0 0 0 0 0 0 0 0 0 0 0 0 0 0 0
    0 0 0 0 0 0 0 0 0 0 0 0 0 0 0 0 0 0 0 0 0 0 0 0 0 0 0 0 0 0 0 0 5985 5985 5985 5985 5985 5985 5985 5985 6042 6042 6042 6042 6042 6042 6042 6042 6042 6042 6042 6042 6042 6042 6042 6042 6042 6042 6042 6042 6042 6042 6042 6042 6042 6042 6042 6042 6042 6042 6042 6042 6042 6042 6042 6042 6042 6042 6042 6042 6042 6042 6042 6042 6042 6042 6042 6042 6042 6042 6042 6042 5985 6042 6042 6042 6042 6042 6101 6101 6101 6161 6161 6101 6101 6042 6042 6042 6042 6042 6101 6161 6161 6161 6222 6161 6161 6161 6161 6161 6161 0 5873 5928 5928 5928 6042 6161 6284 6412 6478 6478 6478 6478 6478 0 0 0 0 5985 5985 5985 6222 6222 6222 6222 6222 6161 6161 6161 6161 6161 6222 6222 6222 6222 6284 6284 6347 6412 6478 6478 6478 6478 6478 6478 6478 6478 6546 6546 6546 6546 6546 6478 6412 0 0 0 0 6478 6478 6478 6478 6478 6478 6478 6478 6478 6478 6478 6478 6478 6478 6546 6546 6546 6546 6546 6546 6546 6546 6546 6546 6546 6478 6478 6478 6478 6478 6478 6412 6412 6347 6347 6347 6347 6284 6284 6222 6222 6222 6284 6347 6412 6478 6478 6546 6615 6615 6615 6615 6615 6615 6546 6546 6546 6546 6546 6478 6478 6478 6478 6478 6478 6478 6478 6478 6478 6546 6546 0 6347 6347 6347 6347 6347 6347 6347 6347 6347 6412 6412 6412 6412 6412 6412 6412 6412 6412 6757 7061 6757 6685 6757 6685 6685 6757 6830 6905 7141 7061 6830 6685 6546 6546 6412 6412 6412 6478 6478 6546 6546 6615 6615 6615 6546 6546 6478 6347 6347 6347 6478 6478 6546 6685 6757 6830 6905 6982 6982 6982 6905 6905 6830 6830 6830 6830 0 0 0 0 7061 7061 7061 7061 7061 7061 7141 7141 7141 7141 7141 7141 7141 7061 7061 7061 7061 0 0 0 0 0 0 0 0 0 0 0 0 0 0 0 0 0 0 0 0 0 0 0 0 0 0 0 0 0 0 0 0 0 0 0 0 0 0 0 0 0 0 0 0 0 0 0 0 7061 7393 7481 7571 7663 7663 7663 7663 7663 7571 7663 7855 8056 8056 8056 8161 8268 8379 8379 8492 8608 8608 8608 8608 8608 8728 8851 8977 9107 9379 9521 9819 9819 9975 9975 9975 9975 10135 10135 10135 10135 9975 9975 9819 9819 9668 9668 9668 9668 9668 9668 9668 9668 9668 9668 9668 9819 9819 9819 9819 9819 9819 9819 9819 9668 9819 0 0 0 9107 9107 9107 9107 9107 9107 9107 9107 9107 9107 9107 0 0 0 0 9819 9819 9819 9668 9819 9819 9819 9975 9975 9975 9975 9975 9975 9819 9379 8977 8728 8608 8608 8492 8492 8492 0 0 0 0 0 0 0 0 0 0 0 0 0 0 0 0 0 0 0 0
    0 0 0 0 0 0 0 0 0 0 0 0 0 0 0 0 0 0 0 0 0 0 0 0 0 0 0 0 0 0 0 0 5985 5985 5985 5985 5985 5985 5985 5985 6042 6042 6042 6042 6042 6042 6042 6042 6042 6042 6042 6042 6042 6042 6042 6042 6042 6042 6042 6042 6042 6042 6042 6042 6042 6042 6042 6042 6042 6042 6042 6042 6042 6042 6042 6042 6042 6042 6042 6042 6042 6042 6042 6042 6042 6042 6042 6042 6042 6042 6042 6042 5985 6042 6042 6042 6042 6042 6101 6101 6161 6161 6161 6101 6101 6042 6042 5985 5985 6042 6042 6101 6161 6161 6161 6161 6161 6161 6161 6161 6042 5818 5873 5985 5985 5985 6042 6101 6222 6347 6412 6412 6347 6284 6101 5818 5818 5818 5873 5985 5985 5985 6042 6101 6161 6161 6161 6161 6161 6161 6161 6161 6161 6222 6222 6222 6222 6284 6284 6347 6412 6412 6478 6478 6412 6412 6412 6478 6478 6546 6546 6546 6546 6546 0 0 0 0 0 6478 6478 6478 6478 6478 6478 6478 6478 6412 6412 6412 6412 6412 6478 6478 6546 6546 6546 6546 6546 6546 6546 6546 6546 6546 6478 6478 6478 6478 6478 6478 6412 6347 6347 6284 6284 6222 6222 6161 6101 6101 6101 6161 6222 6284 6347 6478 6546 6546 6615 6615 6615 6615 6615 6546 6546 6546 6546 6478 6478 6478 6412 6412 6412 6478 6478 6478 6478 6478 6546 6546 6284 6347 6347 6347 6347 6347 6347 6347 6347 6347 6347 6412 6412 6412 6412 6412 6412 6412 6412 0 0 6615 6546 6615 6615 6615 6615 6685 6830 7141 6905 6685 6615 6478 6478 6412 6412 6412 6478 6478 6478 6478 6546 6546 6546 6546 6412 6347 6347 6347 6347 6412 6412 6546 6685 6757 6905 6982 6982 6982 6905 6905 6905 6830 6830 6830 6830 0 0 0 0 7061 7061 7061 7061 7061 7061 7061 7141 7141 7141 7141 7141 7061 7061 7061 7061 7061 0 0 0 0 0 0 0 0 0 0 0 0 0 0 0 0 0 0 0 0 0 0 0 0 0 0 0 0 0 0 0 0 0 0 0 0 0 0 0 0 0 0 0 0 0 0 0 8056 7571 7571 7481 7571 7663 7663 7663 7758 7758 7758 7855 7954 8056 8056 8056 8161 8268 8268 8379 8492 8608 8608 8608 8608 8728 8851 8851 8977 9107 9379 9668 9819 9975 9975 9975 9975 10135 10135 10135 10135 9975 9975 9975 9819 9819 9668 9668 9668 9521 9668 9668 9668 9668 9668 9668 9668 9668 9819 9819 9819 9668 9668 9668 9668 9521 9521 0 0 0 9107 9107 9107 9107 9107 9107 9107 9107 9107 9107 9107 0 0 0 0 0 9668 9668 9668 9668 9819 9819 9975 9975 9975 9819 9819 9668 9379 8977 8728 8608 8492 8492 8492 8492 8379 0 0 0 0 0 0 0 0 0 0 0 0 0 0 0 0 0 0 0 0
    0 0 0 0 0 0 0 0 0 0 0 0 0 0 0 0 0 0 0 0 0 0 0 0 0 0 0 0 0 0 0 0 5985 5985 5985 5985 5985 5985 5985 5985 6042 6042 6042 6042 6042 6042 6042 6042 6042 6042 6042 6042 6042 6042 6042 6042 6042 6042 6042 6042 6042 6042 6042 6042 6042 6042 6042 6042 6042 6042 6042 6042 6042 6042 6042 6042 6042 5985 6042 6042 6042 6042 6042 6042 5985 5985 5985 5985 6042 6042 6042 6042 5985 6042 6042 6042 6042 6042 6101 6101 6161 6161 6161 6101 6042 5985 5985 5928 5928 5985 5985 6042 6101 6161 6161 6161 6161 6101 6101 6042 5928 5818 5873 5985 5985 5985 5985 6042 6161 6222 6284 6284 6222 6101 5985 5818 5818 5873 5873 5928 5928 5928 5928 5985 6042 6101 6101 6161 6161 6161 6161 6161 6161 6161 6161 6222 6222 6222 6222 6284 6347 6347 6412 6412 6412 6347 6347 6347 6412 6478 6478 6546 6546 6546 0 0 0 0 0 6478 6478 6478 6478 6478 6412 6412 6347 6347 6347 6347 6284 6347 6412 6478 6546 6615 6546 6546 6546 6546 6546 6546 6546 6546 6478 6478 6478 6478 6478 6478 6412 6284 6222 6222 6222 6161 6161 6101 6101 6042 6042 6101 6222 6284 6347 6478 6546 6546 6546 6615 6615 6615 6615 6615 6546 6546 6546 6478 6478 6412 6412 6412 6478 6478 6478 6478 6478 6478 6546 6546 6284 6347 6347 6347 6347 6347 6347 6347 6284 6347 6347 6347 6412 6412 6412 6412 6412 6412 6412 0 0 6412 6347 6412 6412 6412 6412 6412 6685 7141 6757 6546 6546 6478 6412 6412 6412 6412 6412 6412 6412 6412 6412 6412 6412 6412 6284 6347 6347 6347 6347 6347 6412 6546 6757 6830 6905 6982 6982 6905 6905 6905 6830 6830 6830 6830 6830 0 0 0 0 7061 7061 7061 7061 7061 7061 7061 7061 7141 7141 7141 7141 7061 7061 7061 7061 7061 0 0 0 0 0 0 0 0 0 0 0 0 0 0 0 0 0 0 0 0 0 0 0 0 0 0 0 0 0 0 0 0 0 0 0 0 0 0 0 0 0 0 0 0 0 8056 8056 8056 7855 7663 7571 7663 7663 7663 7758 7855 7954 7954 7954 8056 8056 8056 8056 8161 8161 8268 8379 8492 8492 8608 8608 8608 8728 8851 8977 9107 9241 9379 9521 9668 9819 9975 9975 9975 9975 10135 10135 9975 9975 9975 9819 9819 9819 9668 9668 9668 9521 9521 9521 9521 9521 9521 9521 9668 9668 9668 9668 9668 9668 9668 9521 9521 9107 8851 8492 8492 8492 8977 9107 9107 9107 9107 9107 9107 9107 9107 9107 9107 0 0 0 0 0 9668 9668 9668 9668 9668 9819 9819 9819 9668 9521 9379 9107 8977 8728 8608 8492 8492 8492 8492 8379 8379 8268 0 0 0 0 0 0 0 0 0 0 0 0 0 0 0 0 0 0 0
    0 0 0 0 0 0 0 0 0 0 0 0 0 0 0 0 0 0 0 0 0 0 0 0 0 0 0 0 0 0 0 0 5985 5985 5985 5985 5985 5985 5985 5985 6042 6042 6042 6042 6042 6042 5985 6042 6042 6042 6042 6042 6042 6042 6042 6042 6042 6042 6042 6042 6042 6042 6042 6042 6042 6042 6042 6042 6042 6042 6042 6042 6042 6042 6042 5985 5985 5985 5985 6042 6042 6042 6042 5985 5985 5985 5985 5985 5985 5985 6042 5985 5985 5985 6042 6042 6042 6042 6042 6101 6161 6161 6101 6042 5985 5928 5928 5928 5873 5928 5928 5985 6042 6101 6161 6161 6101 6042 5985 5985 5873 5818 5818 5985 5985 5985 5985 5985 6042 6101 6161 6101 6101 5985 5928 5818 5873 5873 5873 5928 5928 5873 5873 5928 5928 5985 6042 6101 6101 6101 6101 6101 6042 6101 6101 6161 6161 6161 6161 6222 6284 6284 6284 6347 6284 6284 6284 6222 6222 6222 6222 6222 6222 0 0 0 0 0 0 6478 6478 6478 6478 6412 6347 6284 6284 6284 6284 6222 6284 6347 6412 6478 6546 6615 6546 6478 6478 6478 6478 6546 6546 6546 6478 6478 6478 6478 6478 6412 6284 6222 6161 6161 6101 6101 6101 6042 6042 5985 5985 6042 6161 6222 6284 6478 6546 6546 6546 6615 6615 6615 6615 6615 6615 6615 6546 6478 6478 6412 6412 6478 6478 6478 6478 6478 6546 6546 6546 6478 6284 6347 6347 6347 6347 6347 6347 6284 6284 6284 6347 6347 6347 6412 6412 6412 6412 6412 6412 0 0 6412 6347 6412 6412 6412 6412 6412 6412 0 6546 6412 6412 6412 6412 6347 6347 6347 6347 6347 6347 6347 6347 6347 6347 6347 6347 6347 6347 6347 6347 6347 6347 6347 6982 6982 6982 6905 6905 6905 6905 6830 6830 6830 6757 6757 6757 0 0 0 0 6982 7061 7061 7061 7061 7061 7061 7061 7141 7141 7141 7061 7061 7061 7061 7061 6982 0 0 0 0 0 0 0 0 0 0 0 0 0 0 0 0 0 0 0 0 0 0 0 0 0 0 0 0 0 0 0 0 0 0 0 0 0 0 0 0 0 0 8056 8056 8056 8056 8056 8056 7954 7855 7758 7758 7758 7855 7954 8056 8056 8056 8056 8161 8161 8161 8161 8161 8268 8268 8379 8379 8492 8608 8608 8608 8728 8851 8977 9107 9241 9379 9379 9521 9668 9819 9975 9819 9819 10135 9975 9819 9819 9819 9668 9521 9521 9521 9379 9379 9379 9521 9521 9521 9521 9521 9521 9521 9668 9668 9668 9668 9668 9521 9521 9379 8977 8728 8608 8608 8608 8851 9107 9107 9107 9107 9107 9107 8977 8977 8977 8977 0 0 0 0 0 9521 9521 9521 9521 9521 9668 9668 9379 9241 9107 8977 8851 8728 8608 8608 8492 8379 8379 8379 8379 8379 8268 8268 8268 0 0 0 0 0 0 0 0 0 0 0 0 0 0 0 0 0
    0 0 0 0 0 0 0 0 0 0 0 0 0 0 0 0 0 0 0 0 0 0 0 0 0 0 0 0 0 0 0 0 5985 5985 5985 5985 5985 5985 5985 5985 5985 5985 5985 5985 5985 5985 5985 5985 5985 6042 6042 6042 6042 6042 6042 6042 6042 6042 6042 6042 6042 6042 6042 6042 6042 6042 6042 6042 6042 6042 6042 6042 6042 6042 6042 5985 5985 5985 5985 6042 6042 6042 6042 5985 5985 5985 5985 5985 5985 5985 5985 5985 5985 6042 6042 6042 6042 6042 6042 6101 6101 6042 5985 5928 5873 5873 5873 5873 5873 5873 5873 5928 5985 6042 6101 6101 6042 5985 5928 5928 5928 5873 5928 6101 6042 5985 5928 5985 5985 5985 5985 5985 5985 5928 5873 5818 5818 5873 5873 5873 5873 5873 5873 5873 5873 5928 5928 5985 5985 5985 5928 5873 5818 5873 5985 6101 6161 6161 6161 6222 6222 6222 6284 6284 6284 6222 6222 6161 6101 6042 5985 5873 5873 5873 0 0 0 0 0 0 6478 6478 6478 6284 6222 6222 6161 6161 6161 6161 6161 6284 6347 6478 6546 6615 6478 6347 6347 6412 6478 6478 6546 6546 6546 6546 6546 6546 6546 6347 6161 6101 6042 6042 6042 6042 6042 6042 6042 5985 5985 6042 6161 6222 6347 6478 6546 6546 6546 6615 6615 6615 6615 6615 6615 6615 6546 6478 6478 6478 6478 6478 6478 6546 6546 6546 6546 6546 6478 6412 6284 6347 6347 6347 6347 6347 6284 6284 6284 6284 6284 6347 6347 6347 6412 6412 6412 6412 0 0 7307 6982 6830 6905 6905 6905 6905 7223 7223 0 6347 6347 6347 6347 6347 6347 6347 6347 6347 6347 6347 6347 6347 6347 6347 6347 6347 6347 6347 6347 6347 6347 6347 6347 0 6905 6905 6905 6905 6905 6905 6830 6830 6830 6757 6757 6757 0 0 0 0 6982 7061 7061 7061 7061 7061 7061 7061 7061 7061 7061 7061 7061 7061 7061 7061 0 0 0 0 0 0 0 0 0 0 0 0 0 0 0 0 0 0 0 0 0 0 0 0 0 0 0 0 0 0 0 0 0 0 0 0 0 0 0 0 0 0 8056 8056 8056 8056 8056 8056 8056 8056 7954 7954 7954 7954 8056 8056 8056 8056 8161 8161 8161 8268 8268 8268 8268 8268 8268 8379 8379 8492 8608 8608 8608 8728 8851 8977 9241 9379 9379 9379 9379 9379 9379 0 0 0 10135 9668 9521 9521 9521 9379 9379 9379 9241 9241 9107 9241 9241 9379 9521 9521 9521 9521 9521 9521 9668 9668 9668 9668 9521 9379 9241 8851 8728 8608 8608 8608 8851 9107 9107 9107 9107 8977 8977 8977 8977 8977 8977 8728 0 8492 8492 8492 8851 8977 9241 9379 9379 9241 9241 8977 8977 8851 8851 8728 8608 8608 8492 8492 8379 8379 8379 8379 8379 8268 8268 8268 8268 8161 8161 8161 8161 8161 8161 8161 0 0 0 0 0 0 0 0 0
    0 0 0 0 0 0 0 0 0 0 0 0 0 0 0 0 0 0 0 0 0 0 0 0 0 0 0 0 0 0 0 0 5985 5985 5985 5985 5985 5985 5985 5985 5985 5985 5985 5985 5985 5985 5985 5985 5985 5985 5985 5985 5985 5985 6042 6042 6042 6042 6042 6042 6042 6042 6042 6042 6042 6042 6042 6042 6042 6042 6042 6042 6042 6042 6042 5985 5985 5985 5985 5985 6042 6042 6042 5985 5985 5985 5985 5985 5985 5985 5985 5985 5985 5985 6042 6042 6042 6042 6042 6042 5985 5873 5818 5765 5765 5818 5818 5818 5818 5818 5873 5873 5928 5928 5985 5985 5928 5873 5873 5928 5873 5928 5985 6222 6161 5985 5985 5928 5928 5928 5928 5928 5873 5873 5818 5818 5818 5873 5873 5873 5873 5873 5818 5818 5818 5873 5873 5873 5873 5873 5818 5765 5713 5713 5818 5985 6161 6161 6161 6161 6161 6161 6222 6222 6222 6161 6101 6042 5985 5928 5928 5873 5873 5873 0 0 0 0 0 0 0 0 0 6101 6101 6101 6101 6101 6101 6101 6161 6222 6347 6478 6546 6546 6347 6222 6222 6347 6412 6478 6546 6546 6546 6546 6546 6546 6546 6284 6042 6042 6042 6042 6042 6042 6042 6042 6042 5985 6042 6101 6222 6284 6412 6546 6546 6546 0 6615 6615 6615 6615 6615 6615 6615 6615 6546 6478 6546 6546 6546 6546 6546 6546 6546 6546 6546 6478 6412 6284 6347 6347 6347 6347 6347 6284 6284 6284 6284 6284 6284 6347 6347 6347 6412 6412 0 0 7307 7307 7307 7223 7223 7223 7141 7141 7223 7223 7141 6347 6347 6347 6347 6347 6347 6347 6347 6347 6284 6284 6284 6284 6347 6347 6347 6347 6347 6347 6347 6347 6347 6347 6347 0 0 6905 6905 6905 6905 6905 0 0 0 0 0 0 0 0 0 0 0 7061 7061 7061 7061 7061 7061 7061 7061 7061 7061 7061 7061 7061 7061 0 0 0 0 0 0 0 0 0 0 0 0 0 0 0 0 0 0 0 0 0 0 0 0 0 0 0 0 0 0 0 0 0 0 0 0 0 0 0 0 0 0 0 8056 8056 8056 8161 8161 8161 8161 8161 8056 8056 8056 8056 8161 8161 8161 8161 8268 8268 8268 8268 8268 8268 8268 8268 8379 8379 8379 8492 8608 8608 8608 8728 8851 9107 9241 9379 9379 9379 9379 9379 9379 0 0 0 0 9241 9241 9241 9241 9241 9107 9107 9107 8977 8977 8851 8977 9107 9379 9521 9521 9521 9521 9521 9521 9668 9668 9521 9521 9241 8977 8728 8728 8608 8608 8608 8728 9107 8977 8977 8977 8977 8851 8851 8851 8851 8851 8728 8608 8492 8492 8492 8492 8492 8492 0 8608 8608 8728 8728 8728 8608 8608 8608 8492 8492 8492 8379 8379 8379 8379 8379 8268 8268 8268 8268 8268 8268 8268 8268 8161 8161 8161 8161 8161 0 0 0 0 0 0 0 0
    0 0 0 0 0 0 0 0 0 0 0 0 0 0 0 0 0 0 0 0 0 0 0 0 0 0 0 0 0 0 0 0 5985 5985 5985 5985 5985 5985 5985 5985 6042 6042 6042 6042 6042 6042 6042 6042 6042 6042 6042 6042 6042 6042 6042 6042 6042 6101 6101 6101 6101 6101 6101 6101 6042 6042 6042 6042 6042 6042 6042 6042 6042 6042 5985 5985 5985 5985 5985 5985 5985 6042 6042 6042 5985 5985 5985 5985 5985 5985 5985 5985 5985 5985 6042 6042 6042 6042 6042 5985 5928 5818 5765 5765 5765 5765 5818 5818 5818 5818 5818 5873 5873 5818 5818 5818 5818 5818 5818 5928 5928 6042 6222 6412 6478 6222 6042 5985 5928 5873 5873 5873 5818 5818 5818 5818 5818 5818 5873 5873 5873 5818 5818 5765 5765 5818 5818 5818 5818 5765 5765 5818 5818 5818 5928 6101 6161 6161 6161 6161 6161 6161 6161 6161 6161 6161 6101 6042 5985 5985 5928 5873 5873 5873 0 0 0 0 0 0 0 0 0 6101 6101 6101 6101 6101 6101 6101 6161 6222 6347 6478 6546 6478 6284 6161 6222 6284 6347 6412 6546 6546 6546 6546 6546 6615 6615 6478 6101 6042 6042 6042 6042 6042 6042 6042 6042 6042 6101 6161 6284 6412 6478 6615 6546 6546 6546 6615 6685 6685 6685 6685 6685 6685 6685 0 6615 6615 6615 6615 6615 6615 6615 6615 6615 6546 6478 6284 6284 6347 6347 6347 6347 6347 6347 6284 6284 6284 6284 6284 6284 6284 6412 6685 6685 6685 6905 7141 7307 7307 7307 7307 7307 7223 7223 7223 7223 7141 6830 6478 6284 6284 6284 6284 6284 6284 6284 6284 6284 6284 6284 6347 6347 6347 6347 6347 6347 6347 6284 6284 6284 6284 6284 6284 6284 6284 0 0 0 0 0 0 0 0 0 0 0 0 0 0 7141 7141 7141 7141 7141 7141 7061 7061 7061 7061 0 0 0 0 0 0 0 0 0 0 0 0 0 0 0 0 0 0 0 0 0 0 0 0 0 0 0 0 0 0 0 0 0 0 0 0 0 0 0 0 0 0 0 0 0 0 8056 8056 8056 8056 8161 8161 8161 8161 8161 8161 8161 8056 8056 8161 8161 8268 8268 8379 8379 8379 8379 8379 8379 8379 8379 8379 8379 8492 8492 8608 8608 8608 8728 8851 9107 9241 9379 9379 9379 9379 9379 9379 0 0 0 0 9107 8977 8977 8977 8977 8977 8851 8851 8851 8728 8728 8851 8977 9241 9379 9521 9521 9521 9521 9521 9521 9668 9521 9379 9107 8851 8728 8608 8608 8608 8608 8608 0 8851 8851 8851 8851 8851 8851 8728 8728 8728 8608 8608 8492 8608 8728 8728 8728 8851 0 8608 8608 8608 8492 8492 8492 8492 8492 8492 8379 8379 8379 8379 8379 8379 8379 8379 8268 8268 8268 8268 8268 8268 8268 8161 8161 8161 8161 8161 0 0 0 0 0 0 0 0
    0 0 0 0 0 0 0 0 0 0 0 0 0 0 0 0 0 0 0 0 0 0 0 0 0 0 0 0 0 0 0 0 0 6042 5985 5985 5985 5985 5985 6042 6042 6042 6042 6042 6042 6042 6042 6042 6042 6042 6042 6042 6042 6042 6042 6101 6101 6101 6101 6101 6101 6101 6101 6101 6101 6042 6042 6042 6042 6042 6042 6042 6042 6042 6042 5985 5985 5985 5985 5985 5985 6042 6042 6042 6042 5985 5985 5985 5985 5928 5928 5928 5928 5985 6042 6042 6042 6042 6101 6101 6042 5928 5873 5873 5818 5818 5873 5928 5985 5985 5985 5928 5873 5765 5765 5765 5765 5818 5873 5985 6042 6161 6347 6478 6546 6412 6161 6042 5873 5873 5873 5873 5818 5818 5818 5818 5818 5818 5818 5818 5818 5818 5765 5765 5765 5765 5765 5765 5818 5873 5928 5985 6042 5985 5985 6042 6161 6161 6161 6161 6161 6161 6161 6161 6161 6161 6101 6042 5985 5928 5928 5873 5873 5873 0 0 0 0 0 0 0 0 0 6101 6101 6101 6101 6101 6101 6101 6222 6347 6478 6615 6685 6478 6284 6161 6222 6284 6347 6412 6546 6546 6546 6546 6615 6615 6615 6546 6284 6101 6042 6042 6042 6042 6042 6101 6042 6101 6101 6222 6347 6478 6546 6615 6546 6546 6546 0 6685 6685 6685 6685 6685 6685 0 0 6615 6615 6615 6615 6615 6615 6615 6615 6615 6615 0 6284 6284 6347 6347 6347 6347 6347 6347 6284 6284 6284 6284 6284 6284 6284 6478 6830 6905 6982 7061 7141 7307 7307 7307 7307 7223 7223 7223 7223 7223 7141 7141 6905 6478 6284 6284 6284 6284 6284 6284 6284 6284 6284 6284 6347 6347 6347 6347 6347 6347 6347 6284 6284 6284 6284 6284 6284 6284 6478 6757 6982 6982 6982 6982 6982 6982 6982 0 0 0 0 0 0 0 7141 7141 7141 7141 7141 7061 7061 7061 0 0 0 0 0 0 0 0 0 0 0 0 0 0 7223 7223 7223 7223 7223 7141 7141 7141 0 0 0 0 0 0 0 0 0 0 0 0 0 0 0 0 0 0 0 0 0 0 0 0 0 8056 8056 8056 8161 8161 8268 8268 8379 8379 8379 8268 8268 8268 8268 8268 8379 8379 8379 8492 8492 8492 8492 8492 8492 8379 8379 8492 8492 8492 8608 8608 8608 8728 8851 8977 9107 9241 9379 9379 9379 9379 9379 0 0 0 0 8728 8728 8728 8728 8728 8728 8728 8728 8608 8608 8728 8851 8977 9241 9379 9521 9521 9521 9521 9521 9521 9521 9521 9241 8977 8728 8728 8728 8608 8608 8608 8608 0 8851 8851 8851 8851 8851 8728 8728 8728 8608 8608 8608 8492 8728 8728 8728 8728 9107 0 8728 8608 8608 8492 8492 8492 8492 8492 8492 8492 8492 8492 8379 8379 8379 8379 8379 8268 8268 8268 8268 8268 8268 8268 8161 8161 8161 8161 8161 8056 0 0 0 0 0 0 0
    0 0 0 0 0 0 0 0 0 0 0 0 0 0 0 0 0 0 0 0 0 0 0 0 0 0 0 0 0 0 0 0 0 6042 6042 5985 6042 6042 6042 6042 6042 6042 6042 6042 6042 6042 6042 6042 6042 6042 6042 6042 6042 6042 6042 6101 6161 6161 6161 6161 6161 6161 6101 6101 6101 6042 6042 5985 5985 5985 6042 6042 6042 6042 6042 6042 5985 5985 5985 5985 6042 6042 6042 6042 6042 6042 6042 6042 5985 5928 5928 5928 5928 5985 6042 6042 6101 6161 6222 6222 6101 6042 5985 5985 5928 5873 5928 5985 5985 5985 5985 5928 5818 5713 5713 5713 5765 5818 5928 6042 6161 6347 6412 6546 6546 6478 6347 6161 5873 5873 5873 5873 5818 5818 5818 5818 5818 5818 5818 5818 5818 5818 5765 5765 5765 5765 5765 5818 5873 5985 6042 6101 6161 6042 6101 6161 6161 6161 6161 6161 6161 6161 6161 6161 6161 6161 6101 6042 5985 5928 5928 5873 5873 5873 0 0 0 0 0 0 0 0 0 6101 6101 6101 6101 6101 6101 6222 6412 6546 6685 6757 6685 6546 6347 6222 6222 6284 6347 6478 6546 6546 6546 6615 6615 6615 6615 6615 6478 6284 6101 6042 6042 6042 6042 6101 6101 6101 6161 6284 6412 6546 6546 6615 6615 6546 6546 0 0 0 0 0 0 0 0 0 6685 6685 6685 6615 6615 6615 6615 6615 6615 6546 6546 6546 6412 6347 6347 6347 6347 6347 6347 6347 6284 6284 6284 6284 6284 6478 6685 6905 6982 6982 7141 7141 7223 7223 7307 7223 7223 7223 7223 7223 7223 7141 7141 7141 6830 6478 6284 6284 6284 6284 6284 6284 6284 6284 6284 6347 6347 6347 6347 6347 6347 6347 6347 6347 6347 6347 6347 6347 6347 6478 6757 6982 6982 6982 6982 6982 7061 7061 7141 7141 7141 7141 0 0 0 0 0 0 0 0 0 0 0 0 0 0 0 0 0 0 0 0 0 0 0 0 7223 7223 7223 7223 7223 7223 7141 7141 7141 7141 0 0 0 0 0 0 0 0 0 0 0 0 0 0 0 0 0 0 0 0 0 0 0 8608 8379 8161 8161 8161 8268 8268 8379 8492 8608 8608 8492 8492 8379 8379 8379 8492 8492 8492 8492 8492 8492 8492 8492 8492 8492 8492 8492 8492 8492 8608 8608 8608 8728 8851 8977 9107 9241 9379 9379 9379 9379 9379 0 0 0 0 8728 8728 8728 8728 8728 8728 8728 8608 8608 8608 8851 8977 9107 9241 9521 9521 9521 9521 9521 9521 9521 9521 9379 9241 8851 8728 8728 8728 8608 8608 8608 8608 8608 8851 8851 8851 8851 8728 8728 8728 8728 8608 8608 8608 8492 8608 8728 8728 8851 9107 9819 8977 8728 8728 8608 8492 8492 8492 8492 8492 8492 8492 8492 8379 8379 8379 8379 8379 8268 8268 8268 8268 8268 8268 8268 8161 8161 8161 8161 8161 8056 8056 0 0 0 0 0 0
    0 0 0 0 0 0 0 0 0 0 0 0 0 0 0 0 0 0 0 0 0 0 0 0 0 0 0 0 0 0 0 0 0 6042 6042 6042 6042 6042 6042 6042 6042 6042 6042 6042 6042 6042 6042 6042 6042 6042 6042 6042 6042 6042 6101 6161 6161 6161 6161 6161 6161 6161 6161 6101 6101 6042 6042 5985 5985 5985 5985 6042 6042 6042 6042 6042 6042 5985 5985 5985 6042 6042 6042 6042 6042 6042 6042 6042 5928 5873 5873 5873 5818 5873 6101 6222 6222 6284 6284 6284 6222 6161 6101 6042 5985 5928 5985 6042 6101 6101 6161 6042 5928 5713 5713 5713 5765 5818 5928 6042 6222 6412 6478 6546 6546 6546 6478 6347 5873 5873 5873 5873 5818 5818 5818 5765 5765 5765 5765 5765 5765 5765 5765 5765 5765 5713 5713 5765 5928 5985 6101 6222 6284 6222 6222 6347 6161 6161 6161 6161 6161 6161 6161 6161 6161 6161 6101 6042 5985 5928 5928 5873 5873 5818 0 0 0 0 0 0 0 0 0 0 0 0 0 0 0 6685 6685 6615 6615 6615 6546 6412 6347 6222 6222 6284 6412 6478 6546 6615 6615 6615 6615 6615 6615 6615 6546 6412 6161 6042 6042 6042 6042 6101 6101 6101 6222 6412 6478 6546 6615 6615 6615 6546 6546 0 0 0 0 0 0 0 0 0 6685 6685 6685 6615 6615 6615 6615 6546 6546 6546 6546 6546 6412 6412 6347 6347 6347 6347 6347 6347 6347 6284 6284 6284 6478 6685 6685 6830 6905 6982 7061 7141 7223 7223 7223 7223 7223 7223 7223 7223 7141 7141 7141 7141 6982 6685 6284 6284 6284 6284 6284 6284 6284 6284 6284 6347 6347 6347 6347 6347 6347 6347 6347 6347 6347 6347 6347 6347 6347 6478 6757 6982 6982 6982 6982 6982 7061 7061 7061 7141 7141 7141 0 0 0 0 0 0 0 0 0 0 0 0 0 0 0 0 0 0 0 0 0 0 0 0 7223 7223 7223 7223 7223 7223 7223 7141 7141 7141 0 0 0 0 0 0 0 0 0 0 0 0 0 0 0 7954 7954 7954 7954 7954 7954 7954 0 8608 8492 8379 8268 8268 8379 8379 8492 8608 8608 8608 8608 8608 8492 8492 8492 8492 8492 8608 8608 8608 8608 8608 8608 8608 8608 8492 8492 8492 8608 8608 8608 8608 8608 8728 8851 8977 9107 9379 9379 9379 9379 0 0 0 9521 9107 8851 8851 8728 8728 8728 8728 8728 8608 8608 8608 8851 8977 9241 9379 9521 9521 9521 9521 9521 9521 9521 9521 9379 9107 8851 8728 8728 8728 8608 8608 8608 8608 8608 8851 8851 8851 8851 8728 8728 8728 8608 8608 8608 8608 8492 8608 8608 8728 8728 8977 9241 8851 8728 8728 8608 8608 8492 8492 8492 8492 8492 8492 8492 8492 8379 8379 8379 8379 8268 8268 8268 8268 8268 8268 8268 8161 8161 8161 8161 8161 8056 8056 8056 0 0 0 0 0
    0 0 0 0 0 0 0 0 0 0 0 0 0 0 0 0 0 0 0 0 0 0 0 0 0 0 0 0 0 0 0 0 0 6042 6042 6042 6042 6042 6042 6042 6042 6042 6042 6042 6042 6042 6042 6042 6042 6042 6042 6042 6042 6042 6101 6161 6161 6161 6161 6161 6161 6161 6101 6101 6101 6042 5985 5985 5985 5985 5985 5985 6042 6042 6042 6042 6042 5985 5985 6042 6042 6042 6042 6042 6042 6042 6042 6042 5985 5765 5818 5818 5818 5818 5873 5928 5985 6101 6161 6222 6284 6222 6161 6101 5985 5928 5985 5985 6042 6101 6161 6042 6042 5713 5713 5765 5765 5818 5985 6101 6284 6412 6546 6546 6546 6546 6546 6546 0 0 0 0 5765 5765 5765 5765 5765 5765 5765 5765 5765 5765 5765 5765 5765 5713 5713 5765 5928 6042 6161 6347 6615 6478 6615 7141 6161 6161 6161 6161 6161 6161 6161 6161 6161 6161 6161 6042 5985 5928 5928 5873 5873 5818 0 0 0 0 0 0 0 0 0 0 0 0 0 0 0 6478 6546 6478 6478 6478 6412 6347 6284 6222 6284 6284 6412 6478 6546 6615 6615 6615 6615 6615 6615 6615 6615 6615 6347 6042 6042 6042 6042 6101 6101 6161 6284 6478 6546 6615 6615 6615 6615 6546 6546 0 0 0 0 0 0 0 0 0 6685 6685 6685 6615 6615 6546 6546 6546 6546 6546 6546 6546 6478 6412 6412 6347 6347 6347 6347 6347 6347 6284 6284 6478 6685 6685 6685 6830 6905 6982 7061 7141 7223 7223 7223 7223 7223 7223 7141 7141 7141 7141 7141 7141 7141 7141 6284 6284 6284 6284 6284 6284 6284 6284 6347 6347 6347 6347 6347 6347 6347 6347 6347 6412 6412 6347 6347 6347 6347 6546 6757 6982 6982 6982 6982 6982 6982 7061 7061 7141 7141 7141 0 0 0 0 0 0 0 0 0 0 0 0 0 0 0 0 0 0 0 0 0 0 0 0 7307 7307 7223 7223 7223 7223 7223 7223 7141 7141 0 0 0 0 0 0 0 0 0 0 0 0 0 0 7954 7954 7954 7954 8056 8056 8056 8056 8379 8608 8608 8492 8492 8492 8492 8492 8608 8608 8608 8608 8608 8608 8608 8608 8492 8492 8608 8608 8608 8608 8608 8608 8608 8608 8608 8608 8608 8608 8608 8608 8608 8608 8608 8728 8728 8851 8851 9107 9241 9379 0 0 0 0 9107 8851 8851 8728 8728 8728 8728 8728 8728 8608 8608 8608 8977 9107 9379 9379 9521 9521 9521 9379 9379 9241 9241 9241 9107 8851 8728 8728 8728 8608 8608 8608 8608 8608 8977 9975 9379 9241 8977 8728 8728 8728 8728 8728 8608 8608 8492 8608 8608 8608 8728 8977 8977 8977 8851 8728 8608 8608 8492 8492 8492 8492 8492 8492 8492 8492 8379 8379 8379 8379 8268 8268 8268 8268 8268 8268 8161 8161 8161 8161 8161 8161 8056 8056 8056 8056 0 0 0 0
    0 0 0 0 0 0 0 0 0 0 0 0 0 0 0 0 0 0 0 0 0 0 0 0 0 0 0 0 0 0 0 0 0 6042 6042 6042 6042 6042 6042 6042 6042 6042 6042 6042 6042 6042 6042 6042 6042 6042 6042 6042 6042 6042 6101 6101 6101 6101 6101 6101 6101 6101 6101 6101 6042 6042 5985 5928 5928 5928 5928 5985 5985 5985 5985 5985 5985 5985 5985 6042 6042 6042 6042 5985 5985 5985 5985 5985 6042 0 5873 5818 5818 5818 5818 5873 5928 6042 6101 6161 6222 6222 6161 6101 6042 5928 5985 5985 6042 6042 6101 6042 6042 5985 5928 5873 5818 5873 5985 6101 6222 6412 6546 6546 6546 6546 6546 6546 0 0 0 0 5765 5765 5765 5765 5765 5765 5765 5765 5765 5765 5765 5765 5765 5713 5713 5818 5985 6101 6284 6546 7141 7141 7141 0 0 6161 6161 6161 6161 6161 0 0 0 0 0 5873 5873 5873 5873 5873 5873 0 0 0 0 0 0 0 6685 6685 6685 6685 6685 6615 6615 6615 0 6347 6412 6412 6412 6412 6347 6284 6284 6222 6222 6284 6412 6478 6546 6615 6615 6615 6615 6615 6615 6615 6615 6615 6615 6546 6042 6042 6042 6161 6161 6222 6347 6615 6615 6615 6615 6615 6615 6546 6546 0 0 0 0 0 0 0 0 0 6685 6685 6685 6615 6546 6478 6478 6478 6478 6546 6546 6546 6478 6478 6412 6412 6412 6347 6347 6347 6347 6284 0 6685 6685 6685 6685 6830 6905 6982 7061 7141 7141 7141 7141 7141 7141 7141 7141 7141 7141 7141 7141 7141 7141 7141 0 6284 6284 6284 6284 6284 6284 6347 6347 6412 6412 6412 6412 6412 6347 6412 6412 6412 6412 6412 6412 6412 6478 6615 6830 6982 6982 6982 6982 6982 6982 6982 7061 7061 7141 7141 0 0 0 0 0 0 0 0 0 0 0 0 0 0 0 0 0 0 0 0 0 0 0 7393 7307 7307 7307 7223 7223 7223 7223 7223 7223 7141 0 0 0 0 0 0 0 0 0 0 0 0 0 7954 7954 7954 7954 8056 8056 8056 8056 8056 8268 8608 8608 8608 8608 8608 8608 8608 8608 8608 8608 8608 8608 8608 8608 8608 8492 8492 8608 8608 8608 8608 8608 8728 8728 8728 8728 8608 8608 8608 8608 8608 8608 8608 8608 8608 8608 8608 8728 8728 8728 8728 8728 8728 0 0 8977 8851 8728 8728 8728 8728 8728 8728 8728 8608 8608 8608 9241 9379 9379 9521 9521 9379 9379 9241 9107 9107 9107 8977 8728 8728 8728 8728 8608 8608 8608 8608 8608 8728 9241 10135 10135 10135 9668 8977 8608 8851 8851 8728 8728 8728 8492 8492 8608 8608 8608 8728 8977 8977 8851 8728 8728 8608 8608 8492 8492 8608 8492 8492 8492 8492 8379 8379 8379 8379 8379 8268 8268 8268 8268 8161 8161 8161 8161 8161 8161 8161 8056 8056 8056 8056 8056 0 0 0
    0 0 0 0 0 0 0 0 0 0 0 0 0 0 0 0 0 0 0 0 0 0 0 0 0 0 0 0 0 0 0 0 0 6042 6042 6042 5985 5985 5985 5985 5985 5985 5985 5985 5985 5985 5985 5985 5985 5985 6042 6042 6042 6042 6042 6042 6101 6101 6101 6101 6042 6101 6042 6042 6042 5985 5985 5928 5928 5928 5928 5928 5928 5985 5985 5985 5985 5985 5985 6042 6042 6042 6042 5985 5985 5985 5985 5985 6042 0 5818 5818 5818 5818 5818 5873 5873 5928 5985 6042 6161 6161 6101 5985 5928 5873 5873 5818 5818 5873 5928 5928 6042 6161 6284 6101 5928 5928 5985 6101 6222 6412 6546 6546 6546 6546 6546 6546 6161 6161 6161 6161 6042 5873 5818 5818 5765 5765 5765 5765 5765 5765 5765 5765 5765 5765 5765 5818 5985 6042 6161 6412 7141 0 0 0 0 0 0 0 0 0 0 0 0 0 0 0 0 0 0 0 0 0 0 0 0 0 0 6685 6685 6685 6685 6685 6685 6615 6615 6615 6546 6284 6284 6284 6284 6284 6284 6222 6222 6161 6222 6284 6347 6412 6546 6615 6615 6615 6615 6615 6615 6615 6615 6615 6615 6546 6546 6042 6042 6042 6042 6042 0 6615 6615 6615 6615 6615 6615 6546 6546 0 0 0 0 0 0 0 0 0 6685 6685 6685 6546 6478 6478 6478 6478 6478 6546 6546 6546 6546 6478 6478 6412 6412 6412 6412 6412 6412 0 0 6685 6685 6685 6685 6757 6830 6905 7061 7141 7141 7141 7141 7141 7141 7141 7141 7141 7141 7141 7141 7141 7141 7141 7141 0 0 6284 6284 6347 6347 6412 6412 6478 6478 6478 6478 6478 6478 6478 6478 6478 6478 6412 6412 6478 6546 6685 6830 6982 6982 6982 6905 6982 6982 6982 7061 7061 7141 7141 0 0 0 0 0 0 0 0 0 0 0 0 0 0 0 0 0 0 0 0 0 0 7481 7481 7393 7307 7307 7307 7307 7223 7223 7223 7223 7141 0 0 0 0 0 0 0 0 0 0 0 0 7954 7954 7954 7954 7954 8056 8056 8056 8056 8161 8268 8492 8608 8608 8608 8608 8608 8608 8608 8608 8608 8608 8608 8608 8608 8608 8608 8608 8608 8608 8608 8608 8728 8728 8728 8728 8728 8728 8608 8608 8608 8608 8608 8608 8608 8608 8608 8608 8608 8728 8728 8728 8728 8728 8608 0 8851 8728 8728 8728 8728 8728 8728 8728 8851 8977 9668 9668 9521 9521 9521 9379 9379 9241 9107 9107 8977 8977 8977 8851 8728 8608 8608 8608 8608 8608 8608 8728 8851 8977 9379 10135 10135 10135 10135 9107 8851 9107 9107 9107 8977 8851 8608 8492 8492 8608 8608 8608 8851 8977 8851 8851 8728 8608 8608 8608 8608 8608 8492 8492 8492 8492 8492 8379 8379 8379 8379 8268 8268 8268 8268 8268 8268 8161 8161 8161 8161 8161 8161 8161 8056 8056 8056 8056 0 0
    0 0 0 0 0 0 0 0 0 0 0 0 0 0 0 0 0 0 0 0 0 0 0 0 0 0 0 0 0 0 0 0 0 5985 5985 5985 5985 5985 5985 5985 5985 5985 5985 5985 5985 5985 5985 5985 5985 5985 6042 6042 6042 6042 6042 6042 6042 6042 6042 6042 6042 6042 6042 6042 5985 5985 5928 5928 5928 5928 5928 5928 5928 5928 5928 5928 5928 5985 5985 6042 6042 6042 6042 6042 6042 6042 6042 6042 6042 0 5818 5818 5818 5765 5818 5818 5818 5873 5873 5928 6042 6101 5985 5873 5818 5765 5818 5818 5818 5818 5873 5928 6042 6161 6412 6284 6161 5985 5985 6101 6161 6347 6546 6546 6546 6546 6546 6478 6161 6161 6161 6161 6101 5985 5873 5818 5765 5765 5765 5765 5765 5765 5765 5765 5765 5765 5765 5818 5928 5985 6042 6161 6284 6161 6101 6101 6161 6161 0 0 0 0 0 0 0 0 0 0 0 0 0 0 0 0 0 0 0 0 6685 6685 6685 6685 6685 6685 6615 6615 6615 6615 6546 6222 6161 6161 6161 6161 6161 6161 6161 6161 6161 6222 6284 6412 6478 6546 6615 6615 6615 6615 6615 6615 6615 6546 6546 6546 6546 6478 6478 6478 0 0 0 0 6615 6615 6615 6615 6615 6546 0 0 0 0 0 0 0 0 0 0 0 0 0 6347 6412 6412 6412 6478 6546 6546 6615 6615 6546 6546 6478 6478 6412 6412 6412 6412 6478 0 0 6685 6685 6685 6685 6757 6757 6905 7061 7141 7141 7141 7141 7141 7141 7141 7141 7141 7141 7141 7141 7141 7141 7141 7141 7141 0 6222 6284 6347 6347 6412 6478 6478 6546 6546 6546 6546 6546 6478 6478 6478 6478 6478 6478 6546 6615 6757 6830 6982 6905 6905 6905 6905 6905 6982 6982 6982 7061 7061 0 0 0 0 0 0 0 0 0 0 0 0 0 0 7571 7571 7571 7571 7571 7571 7571 7571 7571 7481 7481 7393 7393 7307 7307 7307 7223 7223 7223 7141 0 0 0 0 0 0 0 0 0 0 0 7954 7954 7954 7954 7954 7954 8056 8056 8056 8056 8161 8268 8492 8608 8608 8608 8608 8608 8608 8608 8608 8608 8608 8608 8608 8608 8608 8608 8608 8608 8608 8608 8608 8728 8728 8728 8728 8728 8728 8608 8608 8608 8608 8608 8608 8608 8608 8608 8608 8608 8728 8728 8728 8728 8728 8851 8977 8977 8851 8851 8851 8728 8728 8851 8851 8977 9241 9668 9668 9668 9668 9521 9379 9241 9107 9107 8977 8977 8851 8851 8977 8977 8977 8851 8851 8728 8728 8728 8851 8977 9241 9668 10135 10135 10135 10135 9668 9379 9521 9521 9521 9521 9379 8977 8728 8608 8492 8492 8608 8608 8728 8728 8728 8608 8608 8608 8608 8608 8608 8492 8492 8492 8492 8492 8492 8379 8379 8379 8268 8268 8268 8268 8268 8268 8161 8161 8161 8161 8161 8161 8161 8161 8161 8161 8161 0 0
    0 0 0 0 0 0 0 0 0 0 0 0 0 0 0 0 0 0 0 0 0 0 0 0 0 0 0 0 0 0 0 0 0 5985 5985 5985 5985 5985 5985 5985 5985 5985 5985 5985 5985 5985 5985 5985 6042 6042 6042 6042 6042 6042 6042 6042 6042 6042 6042 6042 6042 6042 6042 5985 5985 5985 5985 5928 5928 5928 5928 5928 5928 5928 5928 5928 5928 5985 5985 6042 6101 6101 6101 6042 6042 6042 6042 6042 5985 5713 5765 5765 5765 5765 5765 5818 5818 5818 5818 5818 5765 5873 5818 5818 5818 5765 5765 5765 5765 5765 5873 5928 6101 6222 6412 6347 6284 6101 6042 6101 6161 6347 6546 6546 6546 6546 6546 6412 6161 6161 6161 6161 6101 6042 5928 5873 5765 5765 5765 5765 5765 5765 5765 5765 5765 5765 5818 5873 5985 6042 6042 6101 6101 6101 6101 6101 6101 6161 0 0 0 0 0 0 0 0 0 0 0 0 0 0 0 0 0 0 0 6685 6685 6685 6685 6685 6685 6685 6615 6615 6615 6615 6546 6161 6101 6101 6101 6101 6101 6161 6161 6161 6161 6222 6284 6347 6478 6546 6546 6615 6615 6615 6615 6615 6546 6546 6546 6546 6546 6478 6478 6478 0 0 0 0 0 0 0 0 0 0 0 0 0 0 0 0 0 0 0 0 0 0 0 6347 6347 6347 6412 6478 6546 6615 6685 6685 6615 6615 6546 6478 6412 6412 6412 6478 6546 0 0 6685 6757 6757 6757 6757 6830 6905 7061 7141 7141 7141 7141 7141 7141 7141 7141 7141 7141 7141 7141 7141 7141 7141 7141 7141 7141 6222 6284 6347 6412 6412 6478 6546 6615 6546 6546 6546 6546 6546 6546 6546 6546 6478 6478 6615 6685 6830 6905 6905 6905 6905 6905 6905 6905 6905 6905 6982 7061 0 0 0 0 0 0 0 0 0 0 0 0 0 7571 7571 7571 7571 7571 7571 7571 7571 7571 7571 7571 7571 7481 7481 7393 7393 7307 7307 7307 7223 7223 0 0 0 0 0 0 0 7954 7954 7954 7954 7954 7954 7954 7954 7954 7954 8056 8056 8056 8056 8056 8161 8268 8492 8608 8608 8608 8608 8608 8608 8608 8608 8608 8608 8608 8608 8608 8608 8608 8608 8608 8608 8608 8608 8728 8728 8728 8728 8728 8728 8608 8608 8608 8608 8492 8608 8608 8608 8608 8608 8608 8728 8728 8728 8728 8728 8851 8851 8977 8851 8977 8851 8728 8728 8851 8977 9107 9379 9668 9668 9668 9668 9521 9241 9107 8977 8977 8851 8851 8728 8851 8977 8977 9107 8977 8851 8728 8728 8851 8977 9241 9521 9819 10135 10135 10135 10135 10135 9975 9975 9975 9975 9975 9975 9521 9107 8728 8492 8608 8608 8728 8728 8728 0 0 8608 8608 8608 8608 8608 8492 8492 8492 8492 8492 8492 8492 8379 8379 8379 8268 8268 8268 8268 8268 8268 8268 8161 8161 8161 8161 8161 8161 8492 8728 9241 11426 18483
    0 0 0 0 0 0 0 0 0 0 0 0 0 0 0 0 0 0 0 0 0 0 0 0 0 0 0 0 0 0 0 0 0 5985 5985 5985 5985 5985 5985 5985 5985 5985 5985 5985 6042 6042 6042 6042 6042 6042 6042 6042 6042 6042 6042 6042 6042 6042 6042 6042 6042 6042 6042 6042 5985 5985 5985 5985 5985 5985 5985 5985 5928 5928 5928 5928 5928 5985 6042 6101 6101 6161 6101 6101 6101 6101 6101 6101 6101 5713 5765 5765 5765 5765 5818 5818 5873 5873 5873 5928 5985 6101 6042 5928 5873 5818 5765 5765 5765 5873 5928 6042 6161 6284 6412 6412 6347 6222 6161 6222 6222 6347 6546 6546 6546 6546 6546 6347 6222 6222 6222 6222 6161 6101 6042 5985 5873 5765 5765 5765 5765 5765 5765 5765 5765 5765 5873 5985 6042 6101 6161 6161 6101 6101 6101 6101 6101 6161 0 0 0 0 0 0 0 0 0 0 0 0 0 0 0 0 0 0 0 6685 6685 6685 6685 6685 6685 6615 6615 6615 6615 6615 6546 6347 6161 6101 6101 6101 6101 6161 6161 6161 6222 6222 6284 6412 6546 6615 6685 6685 6615 6615 6615 6615 6546 6546 6546 6546 6546 6546 6546 6546 6546 0 0 0 0 0 0 0 0 0 0 0 0 0 0 0 0 0 0 0 0 0 0 6347 6347 6347 6478 6546 6546 6615 6685 6685 6685 6685 6615 6615 6478 6412 6347 0 0 0 0 6685 6757 6757 6757 6757 6830 6905 6982 7061 7061 7141 7141 7141 7141 7141 7141 7141 7141 7141 7141 7141 7141 7141 7141 7141 7141 6222 6284 6412 6478 6478 6546 6546 6615 6546 6546 6546 6546 6546 6546 6546 6546 6478 6546 6685 6830 6905 6905 6905 6905 6905 6905 6905 6905 6905 6905 6905 6982 0 0 0 0 0 0 0 0 0 0 0 0 0 7571 7571 7571 7571 7571 7571 7571 7571 7571 7571 7571 7571 7571 7481 7481 7393 7393 7393 7307 7307 7223 0 0 0 0 0 0 8056 8056 8056 8056 7954 7954 7954 7954 7954 7954 8056 8056 8056 8056 8056 8161 8268 8268 8379 8492 8608 8608 8608 8608 8608 8608 8608 8608 8608 8608 8608 8608 8492 8492 8608 8608 8608 8608 8608 8608 8728 8728 8728 8728 8728 8608 8608 8608 8608 8492 8608 8608 8608 8608 8608 8608 8728 8728 8728 8728 8728 8851 8851 8851 8977 8977 8851 8851 8728 8851 8977 9241 9521 9668 9668 9668 9668 9521 9241 8977 8851 8851 8728 8728 8851 8977 9107 9241 9241 9107 8851 8728 8851 8977 9107 9379 9668 9975 10135 10135 10135 10135 10135 9975 9975 9975 9975 9975 9975 9819 9668 9107 8608 8608 8728 8728 8728 8728 0 0 8608 8608 8608 8608 8608 8492 8492 8492 8492 8492 8492 8492 8379 8379 8379 8379 8268 8268 8268 8268 8268 8268 8268 8268 8161 8161 8161 8161 8492 8608 8851 9521 11426
    0 0 0 0 0 0 0 0 0 0 0 0 0 0 0 0 0 0 0 0 0 0 0 0 0 0 0 0 0 0 0 0 0 6042 6042 5985 5985 5985 5985 5985 5985 5985 6042 6042 6042 6101 6101 6101 6042 6042 6042 6042 6042 6042 6042 6042 6042 6042 6042 6042 6042 6042 6042 6042 6042 5985 5985 5985 5985 5985 5985 5985 5985 5985 5985 5985 5928 6042 6101 6101 6161 6161 6161 6161 6161 6161 6161 6161 6161 6042 5873 5818 5765 5818 5873 5928 5928 5985 6042 6042 6161 6222 6161 6042 5928 5873 5818 5818 5873 5928 6042 6161 6284 6347 6412 6412 6412 6284 6347 6347 6412 6478 6546 6546 6546 6546 6546 6284 6222 6222 6222 6222 6222 6161 6161 6101 6042 5928 5873 5873 5765 5765 5765 5765 5765 5818 5928 6101 6161 6161 6161 6161 6101 6101 6101 6101 6101 6161 0 0 0 0 0 0 0 0 0 0 0 0 0 0 0 0 0 0 0 6685 6685 6685 6685 6685 6685 6615 6615 6615 6546 6546 6546 6412 6284 6161 6161 6101 6101 6161 6222 6222 6222 6222 6222 6546 6757 6757 6757 6757 6685 6615 6615 6615 6546 6546 6546 6546 6546 6546 6546 6546 6546 6546 0 0 0 0 0 0 0 0 0 0 0 0 0 0 0 0 0 0 0 0 0 6347 6347 6412 6546 6615 6615 6685 6757 6757 6757 6757 6757 6757 0 0 0 0 0 0 0 6685 6830 6830 6830 6830 6905 6905 6982 7061 7061 7141 7141 7141 7141 7141 7141 7141 7141 7141 7141 7141 7141 7141 7141 7141 7141 0 0 6685 6685 6615 6615 6615 6546 6546 6546 6546 6546 6546 6478 6478 6478 6478 6546 6757 6905 6905 6905 6905 6905 6905 6905 6905 6830 6830 6830 6830 0 0 0 0 0 0 0 0 0 0 0 0 0 0 7571 7571 7571 7571 7571 7571 7571 7571 7571 7571 7571 7571 7571 7571 7481 7481 7481 7481 7481 7571 7571 7571 7571 7571 7481 0 0 8056 8056 8056 8056 7954 7954 7954 7954 8056 8056 8056 8056 8056 8056 8161 8161 8268 8268 8379 8492 8492 8608 8608 8608 8608 8608 8608 8608 8608 8608 8608 8492 8492 8492 8492 8608 8608 8608 8608 8608 8608 8608 8608 8608 8608 8608 8608 8608 8608 8608 8608 8608 8608 8608 8608 8608 8608 8608 8608 8608 8608 8728 8851 8851 8977 9241 8977 8851 8728 8977 9107 9379 9521 9668 9668 9668 9521 9521 9379 9107 8851 8851 8728 8728 8851 8851 8977 9107 9241 9107 8977 8851 8851 8977 9241 9668 9819 9975 10135 10135 10135 10135 10135 9975 9975 9975 9975 9975 9975 9975 9975 9668 8728 8728 8728 8728 8728 8728 0 0 8608 8608 8608 8608 8608 8492 8492 8492 8492 8492 8492 8379 8379 8379 8379 8379 8379 8268 8268 8268 8268 8268 8268 8268 8268 8268 8268 8268 8492 8492 8608 8728 8977
    0 0 0 0 0 0 0 0 0 0 0 0 0 0 0 0 0 0 0 0 0 0 0 0 0 0 0 0 0 0 0 0 0 6042 6042 6042 6042 6042 5985 5985 5985 6042 6042 6042 6101 6101 6101 6101 6101 6042 6042 6042 6042 6042 6042 6042 6042 6042 6042 6042 6042 6042 6042 6042 6042 6042 6042 6042 6042 6042 6042 6042 6042 6042 5985 5985 5985 6101 6161 6161 6161 6222 6222 6222 6222 6222 6222 6222 6161 6101 5928 5873 5873 5873 5928 5985 6042 6042 6101 6161 6222 6284 6222 6161 6042 5985 5873 5873 5985 6101 6161 6222 6284 6347 6412 6412 6412 6347 6347 6412 6478 6478 6546 6546 6546 6546 6478 6222 6222 6222 6222 6222 6222 6222 6222 6222 6222 6222 6161 6161 0 5765 5765 5765 5765 5765 5928 6161 6222 6161 6161 6161 6101 6101 6101 6101 6101 6161 0 0 0 0 0 0 0 0 0 0 0 0 0 0 0 0 0 0 0 6685 6685 6685 6685 6685 6615 6615 6615 6546 6546 6546 6478 6412 6347 6284 6222 6161 6161 6222 6222 6222 6222 6222 6222 6757 6757 6757 6757 6757 6685 6685 6615 6615 6615 6546 6546 6546 6546 6546 6546 6546 6347 6284 6042 5873 5325 0 0 0 0 0 0 0 0 0 0 0 0 0 0 0 0 0 0 0 6284 6412 6546 6615 6685 6757 6830 6830 6830 6830 6905 6982 0 0 0 0 0 0 0 0 6905 6905 6905 6905 6905 6982 7061 7061 7061 7141 7141 7141 7141 7141 7141 7141 7141 7141 7141 7141 7141 7141 7141 7141 7141 0 0 0 0 0 6546 6546 6546 6546 6546 6546 6546 6546 6478 6478 6478 6478 6685 6905 6905 6905 6905 6905 6905 6905 6905 6905 6830 6830 6830 6830 0 0 0 0 0 0 0 0 0 0 0 0 0 0 7571 7571 7571 7571 7571 7571 7571 7571 7571 7571 7571 7571 7571 7571 7571 7571 7571 7571 7571 7571 7571 7571 7571 7571 7481 7481 0 8056 8056 8056 8056 8056 7954 8056 8056 8056 8056 8161 8161 8161 8161 8161 8161 8268 8268 8379 8379 8492 8492 8492 8608 8608 8608 8608 8608 8608 8608 8492 8492 8492 8492 8492 8492 8608 8608 8608 8608 8608 8608 8608 8608 8608 8608 8608 8608 8608 8608 8608 8608 8608 8608 8608 8608 8608 8608 8608 8608 8608 8728 8728 8851 8977 9668 9379 9107 8851 9107 9107 9521 9521 9521 9521 9521 9379 9379 9241 9107 8851 8851 8728 8728 8728 8851 8977 9107 9107 9107 8977 8851 8977 9107 9379 9819 9975 9975 10135 10135 10135 10135 10135 9975 9975 9975 9975 9975 9975 9975 9975 9975 0 0 0 0 0 0 0 0 8608 8608 8608 8608 8608 8492 8492 8492 8492 8492 8492 8379 8379 8379 8379 8379 8379 8379 8268 8268 8268 8268 8268 8268 8268 8268 8268 8268 8492 8492 8492 8608 8608
    0 0 0 0 0 0 0 0 0 0 0 0 0 0 0 0 0 0 0 0 0 0 0 0 0 0 0 0 0 0 0 0 0 6042 6042 6042 6042 6042 5985 6042 6042 6042 6042 6101 6101 6101 6101 6101 6101 6101 6042 6042 6042 6042 6042 6042 6042 6042 6042 6042 6042 6042 6042 6042 6042 6042 6042 6042 6042 6042 6042 6042 6042 6042 6042 6042 6042 6161 6161 6222 6222 6222 6222 6222 6222 6222 6222 6161 6161 6101 6042 5985 5928 5928 5985 6042 6101 6161 6222 6222 6284 6284 6222 6161 6101 6042 5928 5985 6101 6222 6284 6347 6347 6412 6412 6412 6412 6412 6412 6478 6546 6546 6546 6546 6546 6546 6478 6222 6222 6222 6222 6222 6222 6222 6222 6222 6222 6222 6161 6161 0 5713 5713 5713 5713 5713 6042 6222 6222 6161 6161 6161 6101 6101 6101 6042 6042 0 0 0 0 0 0 0 0 0 0 0 0 0 0 5417 5417 5417 5417 5417 5417 5713 6222 6546 6615 6615 6615 6615 6546 6546 6546 6478 6478 6478 6412 6412 6347 0 0 0 6284 6284 6284 6284 6284 6757 6757 6757 6757 6757 6685 6685 6615 6615 6615 6615 6546 6546 6546 6546 6546 6546 6284 6101 5873 5661 5325 0 0 0 0 0 0 0 0 0 0 0 0 0 0 0 0 0 0 0 6284 6412 6615 6685 6685 6757 6905 6905 6830 6905 6982 0 0 0 0 0 0 0 0 0 6905 6905 6905 6905 6982 6982 6982 7061 7061 7061 7141 7141 7141 7223 7223 7307 7307 7307 7223 7223 7141 7141 7141 7141 7141 0 0 0 0 0 0 6546 6546 6546 6546 6546 6546 6546 6478 6478 6478 6478 6757 6905 6905 6905 6905 6905 6905 6905 6905 6905 0 0 0 0 0 0 0 0 0 0 0 0 0 0 0 0 0 0 7571 7571 7571 7571 7571 7571 7571 7571 7571 7571 7571 7571 7571 7571 7571 7571 7571 7571 7571 7571 7571 7571 7571 7571 7481 7481 8056 8056 8056 8056 8056 8056 8056 8056 8056 8161 8161 8161 8161 8161 8161 8268 8268 8268 8268 8379 8379 8379 8379 8492 8492 8492 8492 8492 8492 8492 8492 8492 8492 8492 8492 8492 8492 8492 8492 8608 8608 8492 8492 8492 8492 8492 8608 8608 8608 8608 8608 8608 8608 8608 8608 8608 8608 8608 8608 8608 8608 8608 8728 8728 8728 8851 9521 0 0 0 0 9668 9521 9379 9241 9241 9241 9107 9107 9107 9107 8728 8728 8728 8728 8728 8851 8851 8851 8977 8851 8851 8728 8977 9241 9521 9975 9975 9975 9975 9975 9975 9975 9975 9975 10135 10135 10135 10135 10135 10135 10135 10135 10135 10135 0 0 0 0 0 0 0 8492 8492 8492 8492 8492 8492 8492 8492 8492 8379 8379 8379 8379 8379 8379 8379 8379 8379 8268 8268 8268 8268 8268 8268 8268 8268 8268 8492 8492 8492 8492 8492
    0 0 0 0 0 0 0 0 0 0 0 0 0 0 0 0 0 0 0 0 0 0 0 0 0 0 0 0 0 0 0 0 0 6042 6042 6042 6042 6042 6042 6042 6042 6042 6042 6101 6101 6101 6101 6101 6101 6101 6042 6042 6042 6042 6042 6042 6042 6042 6042 6042 6042 6042 6042 6042 6042 6042 6042 6042 6042 6042 6042 6042 6042 6042 6042 6042 6042 6161 6161 6222 6222 6222 6222 6222 6222 6161 6161 6161 6161 6161 6101 6042 6042 6042 6042 6101 6101 6161 6161 6222 6222 6284 6222 6222 6161 6101 6042 6222 6347 6347 6347 6412 6412 6412 6412 6412 6412 6412 6412 6478 6478 6546 6546 6546 6546 6546 6478 6222 6222 6222 6222 6222 6222 6222 6222 6222 6222 6222 6161 6161 0 0 0 0 0 0 6222 6222 6222 6222 6161 6161 6101 6101 6101 6042 6042 0 0 0 0 0 0 0 0 0 0 0 0 0 5417 5417 5417 5417 5417 5417 5417 5561 5928 6284 6546 6615 6615 6615 6546 6546 6546 6478 6478 6478 6412 6412 6347 0 0 0 0 0 0 0 0 6757 6757 6757 6757 6757 6757 6685 6685 6615 6615 6615 6615 6615 6615 6615 6615 6546 6284 6101 5873 5661 5325 0 0 0 0 0 0 0 0 0 0 0 0 0 0 0 0 0 0 0 6284 6478 6685 6685 6757 6830 6905 6905 6830 0 0 0 0 0 0 0 0 0 0 0 6905 6905 6905 6905 6982 6982 6982 7061 7061 7061 7061 7141 7141 7223 7307 7307 7307 7307 7307 7223 7141 7141 7141 7141 7141 0 0 0 0 0 0 0 0 0 0 0 0 0 0 0 0 0 6905 6905 6905 6905 6905 6905 6905 6905 6905 6905 0 0 0 0 0 0 0 0 0 0 0 0 0 0 0 0 0 0 7571 7571 7571 7571 7571 7571 7571 7571 7571 7571 7663 7663 7663 7663 7571 7571 7571 7571 7571 7571 7571 7571 7571 7571 7481 7855 8161 8161 8056 8056 8056 8056 8056 8161 8161 8161 8268 8268 8268 8268 8268 8268 8268 8268 8268 8379 8379 8379 8379 8379 8379 8492 8492 8492 8492 8492 8492 8492 8492 8379 8379 8379 8492 8492 8492 8492 8492 8492 8492 8492 8492 8492 8492 8608 8608 8608 8608 8608 8608 8608 8608 8608 8608 8608 8608 8608 8608 8608 8608 8608 8608 8608 0 0 0 0 0 8728 9107 9107 9107 8977 9107 8977 8977 8977 8851 8728 8728 8728 8728 8728 8851 8851 8851 8851 8851 8851 8728 8851 9107 9521 9975 9975 9975 9975 9975 9975 9975 9975 9975 10135 10135 10135 10135 10135 10135 10135 10135 10135 10135 0 0 0 0 0 0 0 0 8492 8492 8492 8492 8492 8492 8492 8492 8379 8379 8379 8379 8379 8379 8379 8379 8268 8268 8268 8268 8268 8268 8268 8268 8268 8268 8268 8268 8268 8268 8268
    0 0 0 0 0 0 0 0 0 0 0 0 0 0 0 0 0 0 0 0 0 0 0 0 0 0 0 0 0 0 0 0 0 6042 6042 6042 6042 6042 6042 6042 6042 6042 6101 6101 6101 6101 6101 6101 6101 6042 6042 6042 6042 6042 6042 6042 6042 6042 6042 6042 6042 6042 6042 6042 6042 6042 5985 5985 6042 6042 6042 6042 6042 6042 6042 6042 6042 6101 6161 6161 6161 6161 6161 6161 6161 6161 6161 6161 6161 6101 6101 6101 6101 6101 6101 6101 6161 6161 6161 6222 6222 6284 6222 6222 6161 6161 6101 6347 6347 6347 6347 6347 6412 6412 6412 6412 6412 6412 6412 6478 6546 6546 6546 6546 6546 6546 6546 6222 6222 6222 6222 6222 6222 6222 6222 6222 6222 6222 6161 6161 0 0 0 0 0 0 0 6222 6222 6222 6161 6161 6161 6101 6101 6042 0 0 0 0 0 0 0 0 0 0 0 0 0 5417 5417 5417 5417 5417 5417 5417 5417 5512 5765 6101 6347 6546 6615 6615 6546 6546 6546 6478 6412 6412 6412 6412 6347 0 0 0 0 0 0 0 0 6757 6757 6757 6757 6757 6757 6685 6685 6685 6615 6615 6615 6615 6615 6615 6615 6615 6284 6101 5873 5661 5325 0 0 0 0 0 0 0 0 0 0 0 0 0 0 0 0 0 0 0 0 6905 6905 6905 6905 6905 6905 0 0 0 0 0 0 0 0 0 0 0 0 0 6905 6905 6905 6905 6982 6982 6982 7061 7061 7061 7061 7141 7141 7223 7307 7393 7393 7393 7307 7307 7141 7141 7141 7141 0 0 0 0 0 0 0 0 0 0 0 0 0 0 0 0 0 0 6905 6905 6905 6905 6905 6905 6905 6905 6905 0 0 0 0 0 0 0 0 0 0 0 0 0 0 0 0 0 0 0 7571 7571 7571 7571 7571 7571 7571 7571 7663 7663 7663 7663 7663 7663 7571 7571 7571 7571 7571 7571 7571 7571 7571 7571 7481 7954 8161 8161 8056 8056 8056 8161 8161 8161 8268 8268 8268 8268 8268 8268 8268 8268 8268 8268 8268 8268 8379 8379 8379 8379 8379 8379 8379 8492 8492 8492 8492 8492 8492 8379 8379 8379 8492 8492 8492 8492 8492 8492 8492 8492 8492 8492 8492 8608 8608 8608 8608 8608 8608 8608 8608 8608 8608 8608 8608 8608 8608 8608 8608 8728 8728 8728 8728 8728 0 0 0 8728 8851 8851 8851 8851 8851 8851 8851 8851 8728 8728 8728 8728 8728 8728 8728 8728 8728 8728 8728 8728 8728 8728 8728 9107 9819 9975 9975 9975 9975 9975 9975 9975 9975 10135 10135 10135 10135 10135 10135 10135 10135 10135 10135 0 0 0 0 0 0 0 0 0 0 0 0 8379 8379 8379 8379 8379 8379 8379 8268 8268 8268 8268 8268 8268 8268 8268 8268 8268 8268 8268 8268 8268 8268 8268 8268 8268 8268 8268
    0 0 0 0 0 0 0 0 0 0 0 0 0 0 0 0 0 0 0 0 0 0 0 0 0 0 0 0 0 0 0 0 0 6042 6042 5985 5985 5985 5985 6042 6042 6042 6101 6101 6101 6101 6101 6042 6042 6042 6042 6042 6042 6042 6042 6042 6042 6042 6042 6042 6042 6042 6042 6042 6042 5985 5985 5985 6042 6042 6042 6042 6042 6042 6042 6042 6042 6101 6161 6161 6161 6161 6161 6161 6161 6161 6161 6161 6101 6101 6101 6101 6101 6101 6101 6101 6101 6161 6161 6161 6222 6284 6161 6161 6161 6042 6101 6347 6347 6347 6347 6347 6412 6412 6412 6478 6478 6478 6412 6546 6546 6546 6546 6546 6546 6546 0 6222 6222 6222 6222 6222 6222 6222 6222 6222 6222 6222 6161 0 0 0 0 0 0 0 0 0 0 0 0 0 0 0 0 0 0 0 0 0 0 0 0 0 0 0 0 5464 5464 5464 5464 5464 5417 5417 5417 5417 5417 5464 5661 5928 6222 6412 6615 6615 6546 6546 6546 6478 6412 6412 6412 6412 6347 0 0 0 0 0 0 0 0 0 6757 6757 6757 6757 6757 6757 6685 6685 6685 6615 6615 6615 6615 6615 6615 6615 6222 5985 5873 5661 5325 0 0 0 0 0 0 0 0 0 0 0 0 0 0 0 0 0 0 0 0 0 0 0 0 0 0 0 0 0 0 0 0 0 0 0 0 0 0 0 0 6905 6905 6905 6905 6905 6905 0 0 0 0 7141 7141 7393 7481 7571 7571 7571 7481 7393 7141 7141 0 0 0 0 0 0 0 0 0 0 0 0 0 0 0 0 0 0 0 0 6905 6905 6905 6905 6905 6905 6905 6905 0 0 0 0 0 0 0 0 0 0 0 0 0 8379 8379 8379 8379 8379 8379 0 0 0 7571 7571 7571 7571 7571 7663 7663 7758 7758 7758 7758 7663 7571 7571 7571 7571 7663 7663 7663 7663 7663 7663 7758 8056 8161 8161 8161 8161 8161 8161 8161 8268 8268 8379 8379 8379 8379 8379 8379 8379 8268 8268 8268 8268 8268 8379 8268 8268 8379 8379 8379 8379 8492 8492 8492 8492 8492 8492 8379 8379 8492 8492 8492 8492 8492 8492 8492 8492 8492 8492 8492 8608 8608 8608 8608 8608 8608 8608 8608 8608 8608 8608 8608 8608 8608 8608 8608 8728 8728 8728 8728 8728 0 0 0 8728 8728 8728 8728 8728 8728 8728 8728 8728 8728 8728 8728 8728 8728 8728 8728 8851 8851 8851 8851 8851 8851 8728 8728 8728 9241 9819 9975 9975 9975 9975 9975 9975 9975 9975 10135 10135 10135 10135 10135 10135 10135 10135 10135 0 0 0 0 0 0 0 0 0 0 0 0 0 8379 8379 8379 8379 8379 8379 8268 8268 8268 8268 8268 8268 8268 8268 8268 8268 8268 0 8268 8268 8268 8268 8268 8268 8268 8268
    0 0 0 0 0 0 0 0 0 0 0 0 0 0 0 0 0 0 0 0 0 0 0 0 0 0 0 0 0 0 0 0 0 5985 5985 5985 5985 5985 5985 5985 5985 6042 6042 6042 6042 6042 6042 6042 6042 6042 6042 6042 6042 5985 5985 5985 5985 6042 6042 6042 6042 6042 6042 6042 5985 5985 5985 5985 6042 6042 6042 6042 6042 6042 6042 6042 6042 6101 6161 6161 6161 6161 6161 6161 6161 6161 6161 6161 6101 6101 6101 6101 6101 6101 6101 6101 6101 6101 6161 6161 6222 6284 6042 5985 5985 5928 5928 6347 6347 6347 6347 6347 6412 6412 6412 6478 6478 6478 0 0 0 0 0 0 0 0 0 0 6222 6222 6222 6222 6222 6222 6222 6222 6222 0 0 0 0 0 0 0 0 0 0 0 0 0 0 0 0 0 0 0 0 0 0 0 0 0 0 0 0 0 5464 5464 5464 5464 5464 5464 5417 5417 5417 5417 5417 5464 5610 5818 6042 6284 6615 6615 6546 6546 6546 6478 6478 6478 6478 6412 0 0 0 0 0 0 0 0 0 0 6757 6757 6757 6757 6757 6757 6685 6685 6685 6685 6615 6615 6615 6615 6615 6615 6161 5325 5325 5325 5325 0 0 0 0 0 0 0 0 0 0 0 0 0 0 0 0 0 0 0 0 0 0 0 0 0 0 0 0 0 0 0 0 0 7758 7758 7758 7758 7758 7663 7663 0 0 0 0 0 0 0 0 0 0 0 0 8161 8161 8161 8161 8161 8161 8161 0 0 0 0 0 0 0 0 0 0 0 0 0 0 0 0 0 0 0 0 0 0 0 6905 6905 6905 6905 6905 6905 0 0 0 0 0 0 0 0 0 8379 8379 8379 8379 8379 8379 8379 8379 8379 8379 8379 0 0 0 0 7571 7571 7571 7663 7758 7855 7954 7954 8056 7954 7954 7855 7758 7758 7855 7855 7855 7855 7855 7855 7954 8161 8268 8268 8268 8268 8161 8161 8268 8268 8268 8379 8379 8379 8379 8379 8379 8379 8379 8379 8268 8268 8268 8268 8268 8268 8268 8268 8268 8268 8379 8379 8379 8492 8492 8492 8492 8492 8492 8492 8492 8492 8492 8492 8492 8492 8492 8492 8492 8608 8608 8608 8608 8608 8608 8608 8608 8608 8608 8608 8608 8608 8608 8608 8608 8608 8728 8728 8728 8728 8728 0 0 0 8728 8728 8728 8728 8728 8728 8728 8728 8728 8728 8728 8851 8851 8851 8851 8851 8977 8977 9107 9107 8977 8977 8851 8851 8728 9107 9668 9975 9975 9975 9975 9975 9975 9975 9975 9975 10135 10135 10135 10135 10135 10135 10135 10135 9975 9975 10135 10135 10135 10135 10135 0 0 0 0 0 0 0 0 0 0 0 0 0 0 0 0 0 0 0 0 0 0 0 0 0 0 0 0 8268 8268 8268 8268
    0 0 0 0 0 0 0 0 0 0 0 0 0 0 0 0 0 0 0 0 0 0 0 0 0 0 0 0 0 0 0 0 0 5985 5985 5985 5985 5928 5928 5928 5928 5985 5985 6042 6042 6042 6042 6042 5985 6042 6042 5985 5985 5928 5928 5928 5928 5985 6042 6042 6042 6042 6042 5985 5985 5985 5985 5985 5985 6042 6042 6042 6042 6042 6042 6042 6042 6042 6101 6161 6161 6161 6161 6161 6161 6161 6161 6101 6101 6101 6101 6101 6042 6101 6101 6101 6101 6101 6101 6101 6101 0 5713 5713 5713 5713 5713 6284 6284 6284 6284 6347 6347 6347 6347 6412 0 0 0 0 0 0 0 0 0 0 0 0 0 6161 6161 6161 6161 6161 6161 0 0 0 0 0 0 0 0 0 0 0 0 0 0 0 0 0 0 0 0 0 0 0 0 0 0 0 0 0 0 5464 5464 5464 5464 5464 5464 5464 5417 5417 5417 5417 5417 5464 5561 5713 5873 6101 6615 6615 6546 0 0 0 0 0 0 0 0 0 0 0 0 0 0 0 0 0 6757 6757 6757 6757 6757 6757 6757 6685 6685 6685 6685 6685 6685 6685 6685 6685 6685 0 0 0 0 0 0 0 0 0 0 0 0 0 0 0 0 0 0 0 0 0 0 0 0 0 0 0 0 0 0 0 0 0 0 0 7758 7758 7758 7758 7758 7758 7758 7663 7663 0 0 0 0 0 0 0 0 0 0 0 0 0 0 0 0 0 0 0 0 0 0 0 0 0 0 0 0 0 0 0 0 0 0 0 0 0 0 0 0 0 0 0 0 0 0 0 0 0 0 0 0 0 8268 8268 8268 8379 8379 8379 8379 8379 8379 8379 8379 8379 8379 8379 8379 0 0 0 0 0 7571 7571 7855 7954 8056 8161 8268 8268 8379 8379 8492 8492 8608 8268 8161 8056 8056 8056 8056 8161 8268 8268 8268 8268 8268 8268 8268 8268 8379 8379 8379 8379 8379 8379 8379 8379 8379 8379 8379 8379 8268 8268 8268 8268 8268 8268 8268 8268 8268 8379 8379 8379 8379 8492 8492 8492 8492 8492 8492 8492 8492 8492 8492 8492 8492 8492 8492 8492 8608 8608 8608 8608 8608 8608 8608 8608 8608 8608 8608 8608 8608 8608 8608 8608 8728 8728 8851 8977 9107 9379 10651 8728 8728 8728 8728 8728 8728 8728 8728 8608 8728 8728 8728 8728 8851 8851 8851 8977 8977 9107 9241 9241 9241 9241 9107 8977 8977 8977 9241 9668 9819 9819 9975 9975 9975 9975 9975 9975 9975 9975 10135 10135 10135 10135 10135 10135 9975 9975 9975 9975 10135 10135 10135 10135 0 0 0 0 0 0 0 0 0 0 0 0 0 0 0 0 0 0 0 0 0 0 0 0 0 0 0 0 0 0 8161 8161
    0 0 0 0 0 0 0 0 0 0 0 0 0 0 0 0 0 0 0 0 0 0 0 0 0 0 0 0 0 0 0 0 0 5985 5985 5985 5985 5928 5928 5928 5873 5928 5928 5985 5985 5985 5985 5985 5928 5985 5985 5985 5928 5928 5873 5873 5873 5928 5985 6042 6042 6042 6042 5985 5985 5985 5985 5985 5985 6042 6042 6042 6101 6101 6101 6101 6101 6101 6101 6161 6161 6161 6101 6101 6101 6101 6101 6101 6101 6101 6101 6101 6101 6101 6101 6101 6101 6101 6101 6101 0 0 0 0 0 0 0 6222 6222 6284 6284 6284 6284 6284 6284 6284 0 0 0 0 0 0 0 0 0 0 0 0 0 0 0 0 0 0 0 0 0 0 0 0 0 0 0 0 0 0 0 0 0 0 0 0 0 0 0 0 0 0 0 0 0 0 0 0 5512 5512 5512 5512 5464 5464 5464 5464 5464 5417 5417 5417 5417 5464 5512 5610 5661 5873 6615 6615 0 0 0 0 0 0 0 0 0 0 0 0 0 0 0 0 0 0 6757 6757 6757 6757 6757 6757 6757 6685 6685 0 0 6685 6685 6685 6685 6685 0 0 0 0 0 0 0 0 0 0 0 0 0 0 0 0 0 0 0 0 0 0 0 0 0 0 0 0 0 0 0 0 0 0 0 0 7758 7758 7758 7758 7758 7758 7758 7758 7758 0 0 0 0 0 0 0 0 0 0 0 0 0 0 0 0 0 0 0 0 0 0 0 0 0 0 0 0 0 0 0 0 0 0 0 0 0 0 0 0 0 0 0 0 0 0 0 0 0 0 0 0 8268 8268 8268 8379 8379 8379 8379 8379 8379 8379 8379 8379 8379 8379 8379 8379 0 0 0 0 0 7571 7954 8161 8268 8379 8379 8492 8608 8608 8728 8608 8608 8492 8379 8268 8268 8268 8268 8268 8268 8379 8379 8379 8379 8379 8379 8379 8379 8379 8379 8379 8379 8379 8379 8379 8379 8379 8379 8379 8379 8379 8379 8268 8268 8268 8268 8268 8268 8268 8268 8379 8379 8379 8492 8492 8492 8492 8608 8608 8608 8608 8608 8608 8608 8608 8608 8608 8608 8608 8608 8608 8608 8608 8608 8608 8608 8608 8728 8728 8728 8728 8728 8728 8728 8728 8851 8977 9107 9241 9819 9975 8728 8728 8728 8728 8728 8728 8728 8728 8608 8728 8728 8728 8728 8851 8851 8977 9107 9107 9379 9379 9521 9521 9379 9241 9107 9107 9107 9521 9819 9819 9819 9975 9975 9975 9975 9975 9975 9975 9975 9975 10135 10135 10135 9975 9975 9975 9975 9975 9975 10135 10135 10135 10135 10135 10651 10651 10651 10651 10651 0 0 0 0 0 0 0 0 0 0 0 0 0 0 0 0 0 0 0 0 0 0 0 0 0 0
    0 0 0 0 0 0 0 0 0 0 0 0 0 0 0 0 0 0 0 0 0 0 0 0 0 0 0 0 0 0 0 0 0 5985 5985 5985 5928 5928 5928 5873 5873 5873 5873 5928 5928 5928 5928 5928 5873 5928 5985 5928 5928 5873 5873 5818 5818 5873 5985 6042 6042 6042 6042 6042 5985 5985 5985 6042 6042 6042 6042 6101 6101 6101 6101 6101 6101 6101 6161 6161 6161 6161 6101 6101 6161 6161 6161 6161 6101 6101 6101 6101 6101 6101 6101 6101 6101 6101 6101 0 0 0 0 0 0 0 0 0 0 0 0 0 0 0 0 0 0 0 0 0 0 0 0 0 0 0 0 0 0 0 0 0 0 0 0 0 0 0 0 0 0 0 0 0 0 0 0 0 0 0 0 0 0 0 0 0 0 0 0 0 0 0 0 0 5512 5512 5512 5512 5464 5512 5561 5561 5610 5610 5561 5561 5512 5512 5464 5512 5561 5661 0 0 0 0 0 0 0 0 0 0 0 0 0 0 0 0 0 0 0 0 6757 6757 6757 6757 6757 6757 6757 6685 0 0 0 0 0 0 0 0 0 0 0 0 0 0 0 0 0 0 0 0 0 0 0 0 0 0 0 0 0 0 0 0 0 0 0 0 0 0 0 0 0 0 0 0 7758 7758 7758 7758 7758 7758 7758 7758 7758 0 0 0 0 0 0 0 0 0 0 0 0 0 0 0 0 0 0 0 0 0 0 0 0 0 0 0 0 0 0 0 0 0 0 0 0 0 0 0 0 0 0 0 0 0 0 0 0 0 0 0 0 8268 8268 8268 8379 8379 8379 8379 8379 8379 8379 8379 8379 8379 8379 8379 8379 8379 0 0 0 0 0 8728 8608 8608 8608 8608 8608 8728 8728 8728 8608 8608 8492 8492 8379 8379 8379 8379 8379 8379 8379 8379 8379 8379 8379 8379 8379 8379 8379 8379 8379 8379 8379 8379 8379 8379 8379 8379 8379 8379 8379 8379 8379 8379 8268 8268 8268 8268 8268 8379 8379 8379 8379 8492 8492 8608 8608 8608 8608 8608 8608 8608 8608 8608 8608 8608 8608 8608 8608 8608 8608 8608 8608 8608 8608 8608 8728 8728 8728 8728 8728 8728 8728 8728 8728 8851 9107 9241 9379 9668 9521 8728 8728 8728 8728 8728 8728 8728 8728 8728 8728 8728 8728 8728 8851 8977 9107 9241 9379 9521 9668 9668 9668 9668 9521 9241 9241 9379 9668 9819 9819 9819 9975 9975 9975 9975 9975 9975 9975 9975 9975 9975 9975 9975 9975 9975 9975 9975 9975 9975 10135 10135 10135 10135 10135 9975 9975 9975 9975 9975 0 0 0 0 0 0 0 0 0 0 0 0 0 0 0 0 0 0 0 0 0 0 0 0 0 0
    0 0 0 0 0 0 0 0 0 0 0 0 0 0 0 0 0 0 0 0 0 0 0 0 0 0 0 0 0 0 0 0 0 5985 5985 5985 5985 5928 5928 5873 5873 5873 5873 5873 5873 5873 5873 5873 5873 5928 5928 5928 5873 5873 5818 5818 5818 5873 5928 5985 5985 5985 5985 6042 6042 6042 6042 6042 6042 6042 6101 6101 6101 6101 6101 6101 6101 6161 6161 6161 6161 6161 6101 6101 6161 6161 6161 6161 6101 6101 6101 6101 6101 6101 6101 0 0 0 0 0 0 0 0 0 0 0 0 0 0 0 0 0 0 0 0 0 0 0 0 0 0 0 0 0 0 0 0 0 0 0 0 0 0 0 0 0 0 0 0 0 0 0 0 0 0 0 0 0 0 0 0 0 0 0 0 0 0 0 0 0 0 0 0 0 5512 5512 5512 5512 5512 5512 5561 5661 5661 5713 5661 5610 5512 5561 5512 5512 5610 5765 0 0 0 0 0 0 0 0 0 0 0 0 0 0 0 0 0 0 0 0 0 6757 6757 6757 6757 6757 6757 0 0 0 0 0 0 0 0 0 0 0 0 0 0 0 0 0 0 0 0 0 0 0 0 0 0 0 0 0 9107 9107 9107 9107 9107 0 9379 9379 9379 9379 9379 9379 0 0 0 0 7758 7758 7758 7758 7855 7855 7954 7954 8161 9241 0 0 0 0 0 0 0 0 0 0 0 0 0 0 0 0 0 0 0 0 0 0 0 0 0 0 0 0 0 0 0 0 0 0 0 0 0 0 0 0 0 0 0 0 0 0 0 0 0 0 0 8268 8379 8379 8379 8379 8379 8379 8379 8379 8379 8379 8379 8379 8379 8379 8379 8379 0 0 0 0 0 8728 8728 8728 8728 8728 8728 8728 8728 8728 8608 8608 8492 8492 8379 8379 8379 8379 8379 8379 8379 8379 8379 8379 8379 8379 8379 8379 8379 8379 8379 8379 8379 8379 8379 8379 8379 8379 8379 8379 8379 8379 8379 8379 8379 8379 8379 8379 8379 8379 8379 8379 8379 8379 8492 8492 8608 8608 8608 8608 8608 8608 8608 8608 8608 8608 8608 8608 8608 8608 8608 8608 8608 8608 8608 8608 8608 8728 8728 8728 8728 8728 8728 8728 8728 8851 9107 9107 9241 9379 9107 8728 8728 8728 8728 8728 8728 8728 8608 8728 8728 8728 8728 8851 8851 8977 9107 9379 9521 9668 9819 9819 9819 9819 9668 9668 9668 9668 9819 9819 9819 9819 9975 9975 9975 9975 9975 9819 9975 9975 9975 9975 9975 9975 9819 9975 9975 9975 9975 9975 10135 10135 10135 10135 10135 9819 9668 9521 9521 9521 9241 9668 10135 10135 10135 10135 15327 14614 12322 11637 11637 9521 9521 9521 9379 9379 9379 9379 9379 0 0 0 0 0 0 0
    0 0 0 0 0 0 0 0 0 0 0 0 0 0 0 0 0 0 0 0 0 0 0 0 0 0 0 0 0 0 0 0 0 5985 5985 5985 5985 5985 5928 5928 5873 5873 5873 5818 5818 5818 5818 5818 5873 5928 5928 5928 5928 5873 5873 5818 5873 5873 5928 5985 5985 5985 5985 6042 6042 6042 6042 6042 6042 6042 6101 6101 6101 6101 6101 6101 6101 6161 6161 6161 6161 6161 6101 6101 6161 6161 6161 6161 6161 6161 6161 6161 6101 6101 6101 0 0 0 0 0 0 0 0 0 0 0 0 0 0 0 0 0 0 0 0 0 0 0 0 0 0 0 0 0 0 0 0 0 0 0 0 0 0 0 0 0 0 0 0 0 0 0 0 0 0 0 0 0 0 0 0 0 0 0 0 0 0 0 0 0 0 0 0 0 5512 5512 5512 5512 5512 5561 5610 5765 5818 5873 5818 5765 5610 5610 5561 5610 5713 5985 0 0 0 0 0 0 0 0 0 0 0 0 0 0 0 0 0 0 0 0 0 0 0 0 0 0 0 0 0 0 0 0 0 0 0 0 0 0 0 0 0 0 0 0 0 0 0 0 0 0 0 0 0 0 0 9107 9107 9107 9241 9241 9241 9241 9379 9379 9379 9379 9379 9379 0 0 0 9379 8379 8268 8161 8161 8161 8161 8268 8492 8728 9241 9107 9107 0 0 0 0 0 0 0 0 0 0 0 0 0 0 0 0 0 0 0 0 0 0 0 0 0 0 0 0 0 0 0 0 0 0 0 0 0 0 0 0 0 0 0 0 0 0 0 0 0 8268 8379 8379 8379 8379 8379 8379 8379 8379 8379 8379 8379 8379 8379 8379 8379 8379 0 0 0 0 7571 8379 8608 8608 8608 8728 8728 8728 8608 8608 8608 8492 8492 8492 8379 8379 8379 8379 8379 8379 8379 8379 8379 8379 8379 8379 8379 8379 8379 8379 8379 8379 8379 8379 8379 8379 8379 8379 8379 8379 8379 8379 8379 8379 8379 8379 8379 8379 8379 8379 8379 8379 8379 8379 8492 8492 8608 8608 8608 8608 8608 8608 8608 8608 8608 8608 8608 8608 8608 8608 8608 8608 8608 8608 8608 8608 8608 8728 8728 8728 8728 8728 8728 8728 8728 8851 9107 9107 9107 9241 8977 8728 8728 8728 8728 8728 8728 8728 8608 8728 8728 8728 8728 8851 8851 8977 9241 9521 9668 9819 9819 9819 9819 9819 9819 9668 9668 9819 9819 9819 9819 9819 9819 9819 9819 9819 9819 9819 9819 9819 9819 9975 9975 9819 9819 9975 9975 9975 9975 9975 10135 10135 9975 9975 9975 9819 9668 9521 9521 9521 9521 9668 9975 10135 10135 10135 11637 11221 10835 10473 10302 9521 9521 9521 9379 9379 9379 9379 9379 9379 0 0 0 0 0 0
    0 0 0 0 0 0 0 0 0 0 0 0 0 0 0 0 0 0 0 0 0 0 0 0 0 0 0 0 0 0 0 0 0 5985 6042 5985 5985 5985 5985 5928 5928 5873 5873 5818 5818 5765 5818 5818 5873 5873 5928 5928 5928 5928 5873 5873 5873 5873 5928 5985 5985 5985 5985 6042 6042 6042 6042 6042 6042 6042 6101 6101 6101 6101 6101 6101 6101 6161 6161 6161 6161 6161 6101 6101 6161 6161 6161 6161 6161 6161 6161 6161 6161 6101 6101 0 0 0 0 0 0 0 0 0 0 0 0 0 0 0 0 0 0 0 0 0 0 0 0 0 0 0 0 0 0 0 0 0 0 0 0 0 0 0 0 0 0 0 0 0 0 0 0 0 0 0 0 0 0 0 0 0 0 0 0 0 0 0 0 0 0 0 0 0 5512 5512 5512 5512 5512 5561 5661 5873 5928 6042 5985 5928 5713 5765 5713 5818 5985 6615 0 0 0 0 0 0 0 0 0 0 0 0 0 0 0 0 0 0 0 0 0 0 0 0 0 0 0 0 0 0 0 0 0 0 0 0 0 0 0 0 0 0 0 0 0 0 0 0 0 0 0 0 0 0 0 9107 9107 9107 9241 9241 9241 9241 9379 9379 9379 9379 9379 9379 9379 9379 9379 9379 8977 8728 8608 8492 8492 8492 8608 8728 8977 9241 9107 9107 8977 0 0 0 0 0 0 0 0 0 0 0 0 0 0 0 0 0 0 0 0 0 0 0 0 0 0 0 0 0 0 0 0 0 0 0 0 0 0 0 0 0 0 0 0 0 0 0 0 8379 8379 8379 8379 8379 8379 8379 8379 8379 8379 8379 8379 8379 8492 8492 8492 8492 0 0 0 0 7571 8056 8161 8379 8379 8608 8608 8728 8608 8608 8608 8492 8492 8379 8379 8379 8379 8379 8379 8379 8379 8379 8379 8379 8379 8379 8379 8379 8379 8379 8379 8379 8379 8379 8379 8379 8379 8379 8379 8379 8379 8379 8379 8379 8379 8379 8379 8379 8379 8379 8379 8379 8379 8492 8492 8492 8608 8608 8608 8608 8608 8608 8608 8608 8608 8608 8608 8608 8608 8608 8608 8608 8608 8608 8608 8608 8608 8608 8728 8728 8728 8728 8728 8728 8728 8728 8851 8977 8977 8977 8851 8728 8728 8728 8728 8728 8728 8728 8608 8728 8728 8728 8728 8851 8977 9107 9241 9521 9819 9819 9819 9819 9819 9668 9521 9521 9668 9668 9819 9819 9819 9819 9819 9819 9819 9819 9819 9819 9819 9819 9819 9819 9819 9819 9819 9975 9975 9975 9975 9975 10135 10135 9975 9975 9819 9668 9521 9379 9379 9379 9379 9668 9819 10135 10135 10135 10835 10651 10302 10135 9975 9521 9521 9521 9379 9379 9379 9379 9379 9379 9379 0 0 0 0 0
    0 0 0 0 0 0 0 0 0 0 0 0 0 0 0 0 0 0 0 0 0 0 0 0 0 0 0 0 0 0 0 0 0 5985 6042 6042 6042 5985 5985 5985 5928 5928 5873 5873 5818 5818 5818 5818 5818 5873 5928 5985 5928 5928 5928 5873 5873 5873 5928 5985 5985 5928 5985 6042 6042 6042 6042 6042 6042 6042 6101 6101 6101 6101 6101 6101 6101 6161 6161 6161 6161 6161 6101 6101 6161 6161 6161 6161 6161 6161 6161 6161 6101 6101 6101 6042 6042 6042 6042 6042 6042 0 0 0 0 0 0 0 0 0 0 0 0 0 0 0 0 0 0 0 0 0 0 0 0 0 0 0 0 0 0 0 0 0 0 0 0 0 0 0 0 0 0 0 0 0 0 0 0 0 0 0 0 0 0 0 0 0 0 0 0 0 0 0 0 5512 5512 5512 5512 5661 5873 6222 6347 6546 6546 6546 6546 6546 0 0 0 0 0 0 0 0 0 0 0 0 0 0 0 0 0 0 0 0 0 0 0 0 0 0 0 0 0 0 0 0 0 0 0 0 0 0 0 0 0 0 0 0 0 0 0 0 0 0 0 0 0 0 0 0 0 0 0 9241 9241 9241 9241 9241 9241 9241 9379 9379 9379 9379 9379 9379 9379 9379 9379 9379 9241 9107 8977 8851 8851 8851 8977 8977 9107 9107 9107 9107 8977 8977 0 0 0 0 0 0 0 0 0 0 0 0 0 0 0 0 0 0 0 0 0 0 0 0 0 0 0 0 0 0 0 0 0 0 0 0 0 0 0 0 0 0 0 0 0 0 0 8379 8379 8379 8379 8379 8379 8379 8379 8492 8492 8492 8492 8492 8492 8492 8492 8492 8608 8608 8608 8608 7954 7954 7954 8056 8161 8268 8379 8492 8608 8608 8492 8492 8379 8379 8268 8379 8379 8379 8379 8379 8379 8379 8379 8379 8379 8379 8379 8379 8379 8379 8379 8379 8379 8379 8379 8379 8379 8379 8379 8379 8379 8379 8379 8379 8379 8379 8492 8492 8492 8492 8492 8492 8492 8492 8492 8492 8608 8608 8608 8608 8608 8608 8608 8608 8608 8608 8608 8608 8608 8608 8608 8608 8608 8608 8608 8608 8608 8608 8608 8728 8728 8728 8728 8728 8728 8728 8728 8728 8728 8728 8728 8728 8728 8728 8728 8728 8728 8728 8728 8728 8728 8851 8851 8977 9107 9241 9379 9521 9668 9668 9668 9819 9668 9521 9379 9379 9521 9521 9668 9819 9819 9819 9819 9819 9819 9819 9819 9819 9819 9819 9819 9819 9975 9975 9975 9975 9975 9975 9975 9975 10135 10135 9975 9819 9819 9668 9379 9379 9241 9241 9379 9521 9819 9975 10135 10135 10651 10302 10135 9975 9819 9521 9521 9521 9379 9379 9379 9379 9379 9379 9379 0 0 0 0 0
    0 0 0 0 0 0 0 0 0 0 0 0 0 0 0 0 0 0 0 0 0 0 0 0 0 0 0 0 0 0 0 0 0 5985 6042 6042 6042 6042 6042 5985 5985 5985 5928 5928 5928 5873 5818 5818 5818 5873 5928 5985 5985 5928 5928 5928 5873 5873 5928 5928 5928 5928 5985 5985 6042 6042 6042 6042 6042 6042 6101 6101 6101 6101 6101 6101 6101 6161 6161 6161 6101 6101 6101 6101 6161 6161 6161 6161 6161 6161 6161 6101 6101 6101 6101 6042 6042 6042 6042 6042 6042 6042 0 0 0 0 0 0 0 0 0 0 0 0 0 0 0 0 0 0 0 0 0 0 0 0 0 0 0 0 0 0 0 0 0 0 0 0 0 0 0 0 0 0 0 0 0 0 0 0 0 0 0 0 0 0 0 0 0 0 0 0 0 0 0 0 0 0 0 0 0 6546 6546 6546 6546 6546 0 0 0 0 0 0 0 0 0 0 0 0 0 0 0 0 0 0 0 0 0 0 0 0 0 0 0 0 0 0 0 0 0 0 0 0 0 0 0 0 0 0 0 0 0 0 0 0 0 0 0 0 0 0 0 9241 9241 9241 9241 9241 9241 9241 9241 9241 9241 9241 9241 9241 9379 9379 9379 9379 9379 9379 9379 9379 9379 9379 9379 9379 9241 9241 9241 9107 9241 9241 9241 9107 9107 9107 8977 8977 0 0 0 0 0 0 0 0 0 0 0 0 0 0 0 0 0 0 0 0 0 0 0 0 0 0 0 0 0 0 0 0 0 0 0 0 0 0 0 0 0 0 0 0 0 0 8379 8379 8379 8492 8492 8492 8492 8492 8492 8492 8492 8492 8492 8492 8492 8492 8492 8492 8608 8608 8608 8608 8161 7954 7855 7855 8056 8161 8379 8492 8608 8608 8492 8379 8379 8268 8268 8268 8268 8379 8379 8492 8379 8379 8379 8379 8379 8379 8379 8379 8379 8379 8379 8379 8379 8379 8379 8379 8379 8492 8492 8492 8492 8492 8492 8379 8379 8492 8492 8492 8492 8492 8492 8492 8492 8492 8492 8492 8608 8608 8608 8608 8608 8728 8728 8728 8728 8728 8608 8608 8608 8608 8608 8608 8608 8608 8608 8608 8608 8608 8608 8608 8728 8728 8728 8608 8608 8608 8608 8608 8608 8728 8728 8728 8728 8728 8728 8728 8728 8728 8728 8728 8728 8851 8977 8977 9107 9241 9241 9241 9241 9241 9379 9379 9379 9241 9241 9241 9379 9521 9668 9819 9819 9819 9819 9819 9819 9819 9819 9819 9819 9819 9819 9819 9975 9975 9975 9975 9975 9975 9975 9975 10135 10135 9975 9819 9668 9521 9379 9241 9241 9241 9379 9521 9668 9975 10135 9975 10473 10135 9975 9819 9819 9521 9521 9521 9379 9379 9379 9379 9379 9379 9379 9379 9107 9107 9107 9107
    0 0 0 0 0 0 0 0 0 0 0 0 0 0 0 0 0 0 0 0 0 0 0 0 0 0 0 0 0 0 0 0 0 0 6042 6042 6042 6042 6042 6042 6042 6042 6042 6101 5985 5928 5873 5818 5818 5818 5928 5985 5985 5985 5928 5928 5873 5873 5873 5928 5928 5928 5985 5985 6042 6042 6042 6042 6042 6042 6042 6101 6101 6101 6101 0 0 0 6101 6101 6101 6101 6101 6101 6101 6161 6161 6161 6161 6161 6101 6101 6101 6042 6042 6042 6042 6042 6042 6042 6042 6042 0 0 0 0 0 0 0 0 0 0 0 0 0 0 0 0 0 0 0 0 0 0 0 0 0 0 0 0 0 0 0 0 0 0 0 0 0 0 0 0 0 0 0 0 0 0 0 0 0 0 0 0 0 0 0 0 0 0 0 0 0 0 0 0 0 0 0 0 0 6546 6546 6546 6546 6546 0 0 0 0 0 0 0 0 0 0 0 0 0 0 0 0 0 0 0 0 0 0 0 0 0 0 0 0 0 0 0 0 0 0 0 0 0 0 0 0 0 0 0 0 0 0 0 0 0 0 0 0 0 0 0 9241 9241 9241 9241 9241 9379 9379 9241 9241 9241 9241 9241 9241 9241 9379 9379 9379 9379 9379 9379 9379 9379 9379 9379 9521 9521 9521 9521 9379 9379 9241 9241 9107 9107 9107 8977 8977 0 0 0 0 0 0 0 0 0 0 0 0 0 0 0 0 0 0 0 0 0 0 0 0 0 0 0 0 0 0 0 0 0 0 0 0 0 0 0 0 0 0 0 0 0 0 8379 8379 8379 8492 8492 8492 8492 8492 8492 8492 8492 8492 8492 8492 8492 8492 8492 8608 8608 8608 8608 8608 8268 8056 7855 7758 7954 8161 8268 8492 8492 8492 8492 8379 8379 8268 8268 8268 8379 8379 8379 8492 8492 8492 8492 8492 8492 8492 8492 8379 8492 8492 8492 8492 8492 8492 8492 8492 8492 8492 8608 8608 8608 8492 8492 8492 8492 8492 8492 8492 8492 8492 8492 8492 8492 8492 8492 8608 8608 8608 8608 8608 8728 8728 8728 8728 8728 8728 8608 8608 8608 8608 8608 8608 8608 8608 8608 8608 8608 8608 8608 8608 8728 8728 8728 8728 8608 8608 8608 8608 8728 8728 8728 8728 8728 8728 8728 8728 8728 8728 8728 8728 8728 8851 8977 9107 9241 9241 9107 8977 8977 8977 9107 9107 9107 9107 9107 9241 9241 9379 9521 9668 9819 9819 9668 9668 9668 9521 9668 9668 9819 9819 9819 9819 9975 9975 9975 9975 9975 9975 9975 9975 10135 10135 9975 9819 9668 9521 9379 9241 9241 9241 9241 9379 9521 9819 9819 9819 9668 9521 9521 9521 9521 9521 9521 9379 9379 9379 9379 9379 9379 9379 9379 9241 9241 9241 9241 9107
    0 0 0 0 0 0 0 0 0 0 0 0 0 0 0 0 0 0 0 0 0 0 0 0 0 0 0 0 0 0 0 0 8161 8161 7393 6685 6478 6222 6042 6101 6101 6101 6101 6101 6042 5928 5928 5873 5818 5818 5928 5985 5985 5985 5985 5928 5928 5873 5985 0 0 0 5985 5985 5985 5985 6042 6042 6042 6042 6042 0 0 0 0 0 0 0 6101 6101 6101 6101 6101 6101 6101 6161 6161 6161 6161 6101 6101 6101 6101 6042 6042 6042 6042 6042 6042 6042 6042 6042 0 0 0 0 0 0 0 0 0 0 0 0 0 0 0 0 0 0 0 0 0 0 0 0 0 0 0 0 0 0 0 0 0 0 0 0 0 0 0 0 0 0 0 0 0 0 0 0 0 0 0 0 0 0 0 0 0 0 0 0 0 0 0 0 0 0 0 0 0 0 0 0 0 0 0 0 0 0 0 0 0 0 0 0 0 0 0 0 0 0 0 0 0 0 0 0 0 0 0 0 0 0 0 0 0 0 0 0 0 0 0 0 0 0 0 0 0 0 0 0 0 0 0 0 0 0 0 0 9107 9241 9241 9241 9241 9241 9379 9379 9379 9379 9241 9241 9241 9241 9241 9241 9241 9379 9379 9379 9379 9379 9379 9379 9521 9521 9521 9521 9521 9379 9379 9379 9241 9107 9107 9107 8977 8977 0 0 0 0 0 0 0 0 0 0 0 0 0 0 0 0 0 0 0 0 0 0 0 0 0 0 0 0 0 0 0 0 0 0 0 0 0 0 0 0 0 0 0 0 0 8379 8379 8379 8379 8492 8492 8492 8492 8492 8492 8492 8492 8492 8492 8492 8492 8608 8608 8608 8608 8608 8608 8608 8379 8161 7855 7855 8056 8161 8379 8492 8492 8492 8492 8379 8379 8268 8268 8268 8379 8379 8492 8492 8492 8492 8492 8492 8492 8492 8492 8492 8492 8492 8492 8492 8492 8608 8608 8608 8608 8608 8608 8728 8728 8728 8608 8608 8492 8492 8492 8492 8492 8608 8608 8608 8608 8608 8608 8608 8608 8608 8608 8608 8728 8728 8728 8728 8728 8728 8608 8608 8608 8608 8608 8608 8608 8608 8608 8608 8608 8608 8608 8608 8728 8728 8728 8728 8728 8608 8608 8728 8728 8728 8728 8728 8728 8728 8728 8728 8728 8728 8728 8728 8728 8851 8977 9107 9241 9241 9107 8977 8977 8977 8977 9107 9107 9107 9107 9241 9241 9241 9379 9379 9521 9379 9379 9241 9241 9107 9107 9107 9379 9819 9819 0 9975 9975 9975 9975 9975 9975 9975 10135 10135 10135 9975 9668 9521 9379 9241 9241 9241 9241 9241 9241 9379 9521 9521 9521 9521 9379 9521 9521 9521 9521 9379 9379 9379 9379 9379 9379 9379 9379 9379 9241 9241 9241 9241 9107
    0 0 0 0 0 0 0 0 0 0 0 0 0 0 0 0 0 0 0 0 0 0 0 0 0 0 0 0 0 0 0 0 8161 7571 7307 6830 6615 6284 6101 6161 6161 6101 6101 6101 6042 5985 5985 5928 5873 5713 5985 5985 5928 5928 5928 5928 5928 5928 6101 0 0 0 5985 5985 5985 5985 6042 6042 6042 6042 6042 0 0 0 0 0 0 0 6101 6101 6101 6101 6101 6101 6101 6161 6161 6101 6101 6101 6101 6101 6101 6042 6042 6042 6042 6042 6042 6042 6042 6042 0 0 0 0 0 0 0 0 0 0 0 0 0 0 0 0 0 0 0 0 0 0 0 0 0 0 0 0 0 0 0 0 0 0 0 0 0 0 0 0 0 0 0 0 0 0 0 0 0 0 0 0 0 0 0 0 0 0 0 0 0 0 0 0 0 0 0 0 0 0 0 0 0 0 0 0 0 0 0 0 0 0 0 0 0 0 0 0 0 0 0 0 0 0 0 0 0 0 0 0 0 0 0 0 0 0 0 0 0 0 0 0 0 0 0 0 0 0 0 0 0 0 0 0 8608 8608 8608 8608 8851 9107 9107 9241 9241 9241 9379 9379 9379 9379 9379 9379 9241 9241 9241 9241 9241 9379 9379 9379 9379 9379 9379 9379 9521 9521 9521 9521 9521 9379 9379 9379 9241 9241 9241 9107 9107 9107 0 0 0 0 0 0 0 0 0 0 0 0 0 0 0 0 0 0 0 0 0 0 0 0 0 0 0 0 0 0 0 0 0 0 0 0 0 0 0 0 0 0 0 0 0 8379 8379 8379 8492 8492 8492 8492 8608 8608 8608 8608 8492 8492 8492 8608 8608 8608 8608 8608 8608 8608 8608 8608 8492 8379 8161 7954 8161 8268 8379 8492 8492 8492 8492 8379 8379 8379 8379 8379 8379 8492 8492 8492 8492 8492 8492 8492 8492 8492 8492 8492 8492 8492 8492 8608 8608 8608 8608 8728 8728 8728 8728 8851 8851 8851 8851 8851 8728 8728 8608 8608 8608 8608 8608 8608 8608 8608 8608 8608 8608 8608 8728 8728 8728 8728 8728 8728 8728 8728 8608 8608 8608 8608 8608 8608 8608 8608 8608 8608 8608 8608 8608 8728 8728 8728 8728 8728 8728 8728 8608 8728 8728 8728 8728 8728 8728 8728 8728 8728 8728 8728 8728 8728 8851 8851 8977 9107 9107 9107 8977 8977 8977 8977 8977 9107 9107 9107 9107 9107 9241 9241 9241 9241 9241 9107 9107 8977 8977 8977 8977 8977 8977 0 0 0 9975 9975 9975 9975 9975 9819 9819 0 0 0 0 9379 9379 9241 9241 9241 9241 9107 9107 9241 9241 9379 9379 9379 9379 9379 9379 9379 9379 9379 9379 9379 9379 9379 9379 9379 9379 9379 9241 9241 9241 9241 9241 9107
    0 0 0 0 0 0 0 0 0 0 0 0 0 0 0 0 0 0 0 0 0 0 0 0 0 0 0 0 0 0 0 0 8161 7393 7061 6830 6685 6347 6222 6222 6284 6222 6222 6161 6101 5985 5985 5985 5985 0 0 5985 5873 5928 5985 5985 5985 6042 6101 0 0 0 5985 5985 5985 5985 6042 6042 6042 6042 6042 0 0 0 0 0 0 0 6101 6101 6101 6101 6101 6101 6101 6101 6101 6101 6101 6101 6101 6101 6042 6042 6042 6042 6042 6042 6042 6042 6042 6042 0 0 0 0 0 0 0 0 0 0 0 0 0 0 0 0 0 0 0 0 0 0 0 0 0 0 0 0 0 0 0 0 0 0 0 0 0 0 0 0 0 0 0 0 0 0 0 0 0 0 0 0 0 0 0 0 0 0 0 0 0 0 0 0 0 0 0 0 0 0 0 0 0 0 0 0 0 0 0 0 0 0 0 0 0 0 0 0 0 0 0 0 0 0 0 0 0 0 0 0 0 0 0 0 0 0 0 0 0 0 0 0 0 0 0 0 0 0 0 0 0 0 8728 8728 8728 8728 8728 8728 8728 8977 9107 9107 9241 9241 9379 9379 9379 9379 9379 9379 9241 9241 9241 9241 9241 9241 9379 9379 9379 9379 9379 9379 9521 9521 9521 9521 9521 9379 9379 9379 9379 9241 9241 9241 9241 9107 0 0 0 0 0 0 0 0 0 0 0 0 0 0 0 0 0 0 0 0 0 0 0 0 0 0 0 0 0 0 0 0 0 0 0 0 0 0 0 0 0 0 0 0 0 8379 8379 8379 8492 8492 8492 8608 8608 8608 8608 8608 8608 8608 8608 8608 8608 8608 8608 8608 8608 8608 8608 8608 8608 8608 8608 8492 8492 8492 8492 8492 8492 8492 8492 8492 8492 8492 8492 8492 8492 8492 8492 8492 8492 8492 8492 8492 8492 8492 8492 8492 8492 8492 8608 8608 8608 8728 8728 8728 8851 8851 8851 8977 8977 9107 9107 9241 9107 9107 9107 8977 8977 8728 8728 8728 8728 8728 8728 8728 8728 8728 8728 8728 8728 8728 8728 8728 8728 8728 8728 8608 8608 8608 8608 8608 8608 8728 8728 8728 8728 8728 8608 8728 8728 8728 8728 8728 8728 8728 8608 8728 8728 8728 8728 8728 8728 8728 8728 8728 8728 8728 8728 8728 8851 8851 8977 8977 8977 9107 8977 8977 8977 8977 9107 9107 9107 9107 9107 9107 9241 9241 9241 9241 9241 9107 9107 9107 8977 8977 8977 8977 8977 0 0 0 0 0 0 0 0 0 0 0 0 0 0 0 9379 9241 9241 9107 9107 9107 9241 9241 9241 9379 9379 9379 9379 9379 9379 9379 9379 9379 9379 9379 9379 9379 9379 9379 9379 9241 9241 9241 9241 9241 9241 9107
    0 0 0 0 0 0 0 0 0 0 0 0 0 0 0 0 0 0 0 0 0 0 0 0 0 0 0 0 0 0 0 0 8161 7307 6982 6830 6757 6347 6284 6347 6347 6347 6347 6284 6222 5985 5985 5985 0 0 0 5713 5765 5928 5985 5985 5985 6042 6101 0 0 0 5985 5985 5985 5985 5985 5985 5985 0 0 0 0 0 0 0 0 0 6101 6101 6101 6101 6101 6101 6101 6101 6101 6101 6101 6101 6101 6042 6042 6042 6042 6042 6042 6042 6042 6042 6042 0 0 0 0 0 0 0 0 0 0 0 0 0 0 0 0 0 0 0 0 0 0 0 0 0 0 0 0 0 0 0 0 0 0 0 0 0 0 0 0 0 0 0 0 0 0 0 0 0 0 0 0 0 0 0 0 0 0 0 0 0 0 0 0 0 0 0 0 0 0 0 0 0 0 0 0 0 0 0 0 0 0 0 0 0 0 0 0 0 0 0 0 0 0 0 0 0 0 0 0 0 0 0 0 0 0 0 0 0 0 0 0 0 0 0 0 0 0 0 0 0 0 8728 8728 8728 8728 8728 8728 8728 8728 8851 8977 9107 9107 9241 9379 9379 9379 9379 9379 9379 9241 9241 9241 9241 9241 9379 9379 9379 9379 9379 9379 9379 9521 9521 9521 9521 9521 9521 9521 9521 9379 9379 9379 9379 9379 9241 0 0 0 0 0 0 0 0 0 0 0 0 0 0 0 0 0 0 0 0 0 0 0 0 0 0 0 0 0 0 0 0 0 0 0 0 0 0 0 0 0 0 0 0 0 8379 8379 8379 8492 8492 8492 8608 8608 8608 8608 8492 8492 8492 8608 8608 8608 8608 8608 8608 8608 8608 8608 8608 8608 8608 8608 8492 8492 8492 8492 8492 8492 8492 8492 8492 8492 8492 8492 8492 8492 8492 8492 8492 8608 8608 8608 8608 8608 8608 8608 8492 8608 8608 8608 8728 8728 8728 8851 8851 8851 8977 8977 8977 9107 9107 9107 9241 9107 9107 9107 9107 9107 8851 8851 8728 8728 8728 8728 8728 8728 8728 8728 8728 8728 8728 8728 8728 8728 8728 8728 8728 8608 8608 8492 8492 8608 8728 8728 8977 9107 9107 8851 8851 8851 8728 8728 8728 8728 8728 8608 8728 8728 8728 8728 8728 8728 8728 8728 8728 8728 8728 8728 8728 8851 8851 8851 8977 8977 8977 8977 8977 9107 9107 9107 9107 9107 9107 9107 9107 9107 9107 9107 9107 9241 9241 9107 9107 9107 8977 8977 8977 8977 0 0 0 0 0 0 0 0 0 0 0 0 0 0 0 0 9241 9241 9107 9107 9107 9241 9241 9241 9379 9379 9379 9379 9379 9379 9379 9379 9379 9379 9379 9379 0 9241 9241 9241 9241 9241 9241 9107 9107 9107 9107
    0 0 0 0 0 0 0 0 0 0 0 0 0 0 0 0 0 0 0 0 0 0 0 0 0 0 0 0 0 0 0 0 8161 7307 6982 6830 6685 6347 6284 6284 6284 6284 6284 6222 6101 5928 5818 5713 5713 5713 5713 5713 5765 5818 5873 5928 5928 6042 6101 0 0 0 0 0 0 0 0 0 0 0 0 0 0 0 0 0 0 0 0 6101 6101 6101 6101 6101 6101 6101 6101 6101 6101 6101 6101 6042 6042 6042 6042 6042 6042 6042 6042 0 0 0 0 0 0 0 0 0 0 0 0 0 0 0 0 0 0 0 0 0 0 0 0 0 0 0 0 0 0 0 0 0 0 0 0 0 0 0 0 0 0 0 0 0 0 0 0 0 0 0 0 0 0 0 0 0 0 0 0 0 0 0 0 0 0 0 0 0 0 0 0 0 0 0 0 0 0 0 0 0 0 0 0 0 0 0 0 0 0 0 0 0 0 0 0 0 0 0 0 0 0 0 0 0 0 0 0 0 0 0 0 0 0 0 0 0 0 0 0 0 0 0 8728 8728 8728 8728 8728 8728 8728 8728 8728 8728 8851 8977 9107 9241 9379 9379 9379 9379 9379 9379 9241 9241 9241 9241 9241 9379 9379 9379 9379 9379 9379 9379 9521 9521 9521 9521 9521 9521 9521 9521 9521 9521 9521 9521 9521 9379 0 0 0 0 0 0 0 0 0 0 0 0 0 0 0 0 0 0 0 0 0 0 0 0 0 0 0 0 0 0 0 0 0 0 0 0 0 0 0 0 0 0 0 0 0 8379 8379 8379 8492 8492 8492 8608 8608 8492 8492 8379 8379 8379 8492 8492 8608 8608 8608 8608 8608 8608 8608 8608 8608 8608 8608 8492 8492 8492 8492 8492 8492 8492 8492 8492 8492 8492 8492 8492 8492 8608 8608 8608 8608 8608 8608 8608 8608 8608 8608 8608 8608 8608 8608 8728 8728 8728 8851 8851 8977 8977 8977 8977 9107 9107 9107 9241 9107 9107 9107 9107 9107 8977 8851 8728 8728 8728 8728 8728 8728 8728 8728 8728 8728 8728 8728 8608 8608 8608 8608 8608 8608 8492 8379 8268 8379 8608 8728 8977 9379 9379 9107 8977 8851 8851 8851 8728 8728 8728 8608 8728 8728 8728 8728 8728 8728 8728 8728 8728 8728 8728 8728 8728 8728 8851 8851 8851 8851 8977 8977 8977 9107 9107 9107 9241 9241 9107 9107 9107 9107 9107 9107 9107 9241 9241 9241 9107 9107 9107 8977 8977 8977 0 0 0 0 0 0 0 0 0 0 0 0 0 0 0 0 9241 9241 9241 9241 9241 9241 9241 9241 9379 9379 9379 9379 9379 9379 9379 9379 9379 9379 0 0 0 0 9241 9241 9241 9107 9107 9107 9107 9107 9107
    0 0 0 0 0 0 0 0 0 0 0 0 0 0 0 0 0 0 0 0 0 0 0 0 0 0 0 0 0 0 0 0 8161 7141 6830 6685 6546 6222 6222 6222 6161 6161 6101 6042 5985 5818 5765 5713 5713 5713 5713 5713 5713 5818 5818 5873 5873 5985 6222 0 0 0 0 0 0 0 0 0 0 0 0 0 0 0 0 0 0 0 0 0 0 0 0 6161 6101 6101 6101 6101 6101 6101 6042 6042 6042 6042 6042 6042 5985 0 0 0 0 0 0 0 0 0 0 0 0 0 0 0 0 0 0 0 0 0 0 0 0 0 0 0 0 0 0 0 0 0 0 0 0 0 0 0 0 0 0 0 0 0 0 0 0 0 0 0 0 0 0 0 0 0 0 0 0 0 0 0 0 0 0 0 0 0 0 0 0 0 0 0 0 0 0 0 0 0 0 0 0 0 0 0 0 0 0 0 0 0 0 0 0 0 0 0 0 0 0 0 0 0 0 0 0 0 0 0 0 0 0 0 0 0 0 0 0 0 0 0 0 8728 8728 8728 8728 8728 8728 8728 8728 8728 8728 8728 8851 8977 9107 9241 9379 9379 9379 9379 9379 9379 9241 9241 9241 9241 9241 9379 9379 9379 9379 9379 9379 9521 9521 9521 9521 9521 9521 9521 9521 9668 9668 9668 9668 9668 9521 9521 0 0 0 0 0 0 0 0 0 0 0 0 0 0 0 0 0 0 0 0 0 0 0 0 0 0 0 0 0 0 0 0 0 0 0 0 0 0 0 0 0 0 0 0 0 8379 8379 8379 8492 8492 8608 8608 8608 8492 8379 8268 8161 8268 8379 8492 8608 8608 8608 8608 8608 8608 8608 8608 8608 8608 8492 8492 8492 8492 8492 8492 8492 8492 8492 8492 8492 8492 8492 8492 8608 8608 8608 8608 8608 8608 8608 8608 8608 8608 8608 8608 8608 8608 8608 8728 8728 8728 8851 8977 8977 8977 8977 9107 9107 9107 9107 9107 9107 9107 9107 9107 9107 8977 8851 8728 8728 8728 8728 8728 8728 8728 8728 8728 8728 8728 8728 8608 8492 8492 8492 8492 8492 8492 8379 8379 8608 8728 8977 9107 9379 9379 9241 9107 8977 8851 8851 8851 8728 8728 8728 8608 8728 8728 8728 8728 8728 8851 8851 8851 8851 8851 8851 8728 8728 8851 8851 8851 8851 8851 8977 8977 9107 9107 9241 9241 9241 9107 9107 9107 9107 9107 9107 9107 9241 9241 9241 9241 9241 9241 8977 8977 8977 0 0 0 0 0 0 0 0 0 0 0 0 0 0 0 0 9241 9241 9241 9241 9241 9241 9241 9241 9379 9379 9379 9379 9379 9379 9379 9379 9379 9379 0 0 0 0 0 12085 11025 10835 10302 10135 9668 9379 9107
    0 0 0 0 0 0 0 0 0 0 0 0 0 0 0 0 0 0 0 0 0 0 0 0 0 0 0 0 0 0 0 0 8161 7141 6757 6615 6478 6161 6101 6101 6042 6042 6042 5985 5873 5818 5765 5713 5713 5713 5713 5765 5765 5818 5818 5873 5873 5985 0 0 0 0 0 0 0 0 0 0 0 0 0 0 0 0 0 0 0 0 0 0 0 0 0 6101 6101 6101 6101 6101 6042 6042 6042 6042 6042 6042 6042 6042 5985 0 0 0 0 0 0 0 0 0 0 0 0 0 0 0 0 0 0 0 0 0 0 0 0 0 0 0 0 0 0 0 0 0 0 0 0 0 0 0 0 0 0 0 0 0 0 0 0 0 0 0 0 0 0 0 0 0 0 0 0 0 0 0 0 0 0 0 0 0 0 0 0 0 0 0 0 0 0 0 0 0 0 0 0 0 0 0 0 0 0 0 0 0 0 0 0 0 0 0 0 0 0 0 0 0 0 0 0 0 0 0 0 0 0 0 0 0 0 0 0 0 0 0 0 8728 8728 8728 8728 8728 8728 8728 8728 8728 8728 8728 8728 8977 9107 9241 9379 9379 9379 9379 9379 9241 9241 9241 9241 9241 9241 9379 9379 9379 9379 9379 9379 9521 9521 9521 9521 9521 9521 9668 9668 9668 9668 9668 9668 9668 9521 9521 9521 9241 9241 9241 9241 9241 9107 9107 0 0 0 0 0 0 0 0 0 0 0 0 0 0 0 0 0 0 0 0 0 0 0 0 0 0 0 0 0 0 0 0 0 0 0 0 0 0 8379 8379 8379 8379 8492 8608 8608 8379 8268 8161 8056 8161 8268 8492 8608 8608 8608 8608 8608 8608 8608 8608 8608 8608 8492 8379 8492 8492 8492 8492 8608 8608 8608 8608 8492 8492 8492 8608 8608 8608 8608 8608 8608 8608 8608 8608 8608 8608 8608 8608 8608 8608 8608 8728 8728 8728 8851 8977 8977 8977 9107 9107 9107 9107 9107 9107 9107 9107 9107 9107 8977 8977 8851 8728 8728 8728 8728 8728 8728 8728 8728 8728 8728 8728 8728 8608 8379 8379 8379 8379 8379 8379 8268 8268 8608 8851 8977 9241 9379 9379 9379 9107 8977 8851 8851 8851 8728 8728 8728 8608 8608 8728 8728 8728 8851 8851 8851 8851 8851 8851 8851 8728 8728 8851 8851 8851 8851 8851 8977 8977 9107 9107 9107 9241 9107 9107 9107 9107 9107 9107 9107 9241 9241 9241 9379 9379 9379 9521 9668 0 0 0 0 0 0 9668 9668 9668 9668 9668 0 0 0 0 0 0 0 9241 9241 9241 9241 9241 9241 9241 9241 9379 9379 9379 9379 9241 9379 9379 9379 9379 9379 0 0 0 17955 17955 17955 14614 13661 12085 11025 10135 9521 9107
    0 0 0 0 0 0 0 0 0 0 0 0 0 0 0 0 0 0 0 0 0 0 0 0 0 0 0 0 0 0 0 0 8161 7141 6757 6615 6478 6101 6042 5985 5928 5928 5928 5873 5818 5765 5765 5713 5765 5765 5818 5818 5818 5818 5818 5818 5818 5928 0 0 0 0 0 0 0 0 0 0 0 0 0 0 0 0 0 0 0 0 0 0 0 0 0 6101 6101 6101 6101 6101 6042 6042 6042 6042 6042 6042 6042 6042 5985 0 0 0 0 0 0 0 0 0 0 0 0 0 0 0 0 0 0 0 0 0 0 0 0 0 0 0 0 0 0 0 0 0 0 0 0 0 0 0 0 0 0 0 0 0 0 0 0 0 0 0 0 0 0 0 0 0 0 0 0 0 0 0 0 0 0 0 0 0 0 0 0 0 0 0 0 0 0 0 0 0 0 0 0 0 0 0 0 0 0 0 0 0 0 0 0 0 0 0 0 0 0 0 0 0 0 0 0 0 0 0 0 0 0 0 0 0 0 5661 5661 5661 5661 5661 6412 7954 8728 8728 8728 8728 8728 8728 8728 8728 8728 8728 8851 8977 8977 9241 9379 9379 9379 9379 9241 9241 9241 9241 9241 9241 9241 9379 9379 9379 9379 9379 9521 9521 9521 9521 9521 9521 9668 9668 9668 9668 9668 9668 9668 9668 9521 9521 9521 9379 9241 9241 9241 9241 9107 9107 9107 0 0 0 0 0 0 0 0 0 0 0 0 0 0 0 0 0 0 0 0 0 0 0 0 0 0 0 0 0 0 0 0 0 0 0 0 0 0 0 0 0 0 0 0 7758 7855 7855 7855 7954 8268 8492 8608 8608 8608 8608 8608 8608 8608 8608 8492 8492 8492 8379 8379 8492 8492 8492 8608 8608 8608 8608 8608 8608 8608 8608 8608 8608 8608 8608 8608 8608 8608 8608 8608 8608 8608 8608 8608 8608 8608 8728 8728 8728 8728 8851 8977 8977 9107 9107 9107 9107 9107 9107 9107 9107 9107 9107 8977 8977 8851 8728 8728 8728 8728 8728 8728 8728 8728 8728 8728 8728 8728 8492 8268 8161 8161 8056 8056 8056 8056 8268 8608 8851 8977 9241 9379 9379 9379 9241 9107 8977 8851 8851 8851 8728 8728 8728 8728 8851 8851 8851 8977 8977 8977 8851 8851 8851 8851 8728 8728 8851 8851 8851 8851 8851 8977 8977 8977 9107 9107 9107 9107 9107 9107 9107 9107 9107 9107 9107 9241 9379 9379 9521 9521 9521 9668 0 0 0 0 0 0 9668 9668 9668 9668 9668 9521 9521 0 0 0 0 9379 9379 9379 9241 9241 9241 9241 9241 9241 9241 9379 9241 9241 9241 9379 9379 9379 9379 9379 0 0 0 17955 17955 17955 16537 14962 13092 11637 10302 9521 9107
    0 0 0 0 0 0 0 0 0 0 0 0 0 0 0 0 0 0 0 0 0 0 0 0 0 0 0 0 0 0 0 0 8161 6982 6685 6546 6412 6101 6042 5985 5928 5928 5928 5928 5873 5818 5818 5818 5818 5818 5873 5873 5873 5818 5818 5765 5713 5713 0 0 0 0 0 0 0 0 0 0 0 0 0 0 0 0 0 0 0 0 0 0 0 0 0 0 0 6042 6042 6042 6042 6042 6042 6042 6042 6042 6042 6042 5985 0 0 6222 6222 6222 6222 6222 6222 6222 6222 6222 6161 0 0 0 0 0 0 0 0 0 0 0 0 0 0 0 0 0 0 0 0 0 0 0 0 0 0 0 0 0 0 0 0 0 0 0 0 0 0 0 0 0 0 0 0 0 0 0 0 0 0 0 0 0 0 0 0 0 0 0 0 0 0 0 0 0 0 0 0 0 0 0 0 0 0 0 0 0 0 0 0 0 0 0 0 0 0 0 0 0 0 0 0 0 0 0 0 0 0 0 0 0 0 0 0 5661 5661 5661 5661 5661 5661 5928 6546 7571 8379 8728 8728 8728 8728 8728 8728 8728 8728 8728 8851 8977 8977 9107 9241 9241 9241 9241 9241 9241 9241 9241 9241 9241 9379 9379 9379 9379 9379 9379 9521 9521 9521 9521 9521 9521 9668 9668 9668 9668 9668 9668 9668 9668 9521 9521 9521 9379 9241 9241 9241 9241 9107 9107 9107 0 0 0 0 0 0 0 0 0 0 0 0 0 0 0 0 0 0 0 0 0 0 0 0 0 0 0 0 0 0 0 7758 7758 7758 7758 7758 7758 0 0 0 0 0 0 0 7758 7855 7954 7954 7954 8268 8379 8608 8608 8608 8608 8608 8608 8608 8608 8492 8492 8492 8379 8492 8492 8492 8608 8608 8608 8608 8608 8608 8608 8608 8608 8608 8608 8608 8608 8608 8608 8608 8608 8608 8608 8608 8608 8608 8608 8608 8728 8728 8728 8728 8728 8728 0 9107 9107 9107 9107 9107 9107 9107 9107 9107 8977 8977 8851 8851 8728 8728 8728 8728 8728 8728 8728 8728 8728 8728 8728 8728 8379 7954 7758 7758 7758 7663 7571 8161 8268 8728 8851 8977 9107 9241 9241 9241 9107 8977 8851 8851 8851 8851 8851 8728 8851 8851 8977 8977 8977 8977 8977 8977 8977 8851 8851 8851 8728 8728 8851 8851 8851 8851 8851 8851 8977 8977 8977 8977 9107 8977 8977 8977 8977 8977 8977 9107 9107 9379 9521 9521 9521 9668 9668 9668 0 0 0 0 0 0 9668 9521 9521 9521 9521 9521 9379 9379 9241 0 9379 9379 9379 9379 9379 9379 9379 9379 9379 9379 9379 9379 9379 0 0 0 0 0 0 0 0 0 0 17955 17955 17955 17955 16537 14614 12568 10835 9668 9107
    0 0 0 0 0 0 0 0 0 0 0 0 0 0 0 0 0 0 0 0 0 0 0 0 0 0 0 0 0 0 0 0 8161 6905 6546 6478 6347 6101 6042 5985 5928 5928 5873 5873 5818 5818 5818 5873 5873 5928 5928 5928 5928 5928 5928 5873 5713 5713 0 0 0 0 0 0 0 0 0 0 0 0 0 0 0 0 0 0 0 0 0 0 0 0 0 0 0 0 6042 6042 6042 6042 6042 6042 6042 6042 6042 6042 5985 0 0 6222 6222 6222 6222 6222 6222 6222 6222 6161 6161 6161 6161 6161 6161 6101 6101 0 0 0 0 0 0 0 0 0 0 0 0 0 0 0 0 0 0 0 0 0 0 0 0 0 0 0 0 0 0 0 0 0 0 0 0 0 0 0 0 0 0 0 0 0 0 0 0 0 0 0 0 0 0 0 0 0 0 0 0 0 0 0 0 0 0 0 0 0 0 0 0 0 0 0 0 0 0 0 0 0 0 0 0 0 0 0 0 0 0 0 0 0 0 0 0 0 5661 5661 5661 5661 5661 5661 5661 6042 6615 7571 8492 8728 8728 8851 8851 8851 8851 8851 8851 8851 8851 8977 9107 9107 9241 9241 9241 9241 9241 9241 9241 9241 9241 9241 9379 9379 9379 9379 9379 9379 9521 9521 9521 9521 9521 9521 9668 9668 9668 9668 9668 9668 9668 9668 9521 9521 9521 9379 9241 9241 9241 9241 9241 9241 9241 0 0 0 0 0 0 0 0 0 0 0 0 0 0 0 0 0 0 0 0 0 0 0 0 0 0 0 0 0 0 7758 7758 7758 7758 7758 7758 7758 7758 7663 7663 7663 0 0 0 0 0 8056 8056 8056 8379 8492 8608 8608 8608 8608 8608 8608 8608 8492 8492 8492 8492 8492 8492 8492 8492 8608 8608 8608 8608 8608 8608 8608 8608 8608 8608 8608 8608 8608 8608 8608 8608 8608 8608 8608 8608 8608 8608 8728 8728 8728 8728 8728 8728 8851 8851 8977 0 0 9107 9107 9107 9107 9107 9107 9107 8977 8851 8851 8851 8851 8728 8728 8728 8728 8728 8728 8728 8728 8728 8728 8728 8268 7663 7663 7663 7663 7663 0 9379 9379 9241 9107 9107 9107 9107 9107 9107 8977 8977 8851 8851 8851 8851 8851 8851 8851 8977 8977 8977 8977 8977 8977 8977 8977 8851 8851 8851 8851 8851 8851 8851 8851 8851 8851 8851 8977 8977 8977 8977 8977 8977 8977 8977 8977 8977 8977 9107 9241 9379 9521 9668 9668 9668 9668 9668 0 0 0 0 0 0 9521 9521 9521 9521 9521 9379 9379 9379 9379 9379 9379 9379 9379 9379 9379 9379 9379 9379 9379 9379 9379 9379 9379 9379 0 0 0 0 0 0 0 0 0 17955 17955 17955 17955 17955 16537 13965 11637 9975 9107</data></DepthMat>
</opencv_storage>
