<?xml version="1.0"?>
<opencv_storage>
<DepthMat type_id="opencv-matrix">
  <rows>39</rows>
  <cols>512</cols>
  <dt>w</dt>
  <data>
    0 0 0 0 0 0 0 0 0 0 0 0 0 0 0 0 0 0 0 0 0 0 0 0 0 0 0 0 0 0 0 0 5325 5280 5280 5280 5280 5325 5325 5371 5371 5371 5371 5371 5325 5325 5325 5325 5325 5325 5325 5371 5371 5371 5417 5417 5417 5417 5417 5464 5464 5512 5512 5561 5561 5561 5561 5561 5610 5610 5610 5610 5610 5610 5610 5610 5610 5610 5610 5561 5561 5561 5561 5561 5561 5561 5561 5610 5610 5610 5610 5610 5610 5610 5610 5610 5610 5610 5610 5661 5661 5661 5713 5713 5713 5661 5661 5610 5610 5561 5561 5561 5561 5561 5561 5561 5561 5561 5561 5561 5561 5561 5512 5512 5561 5610 5610 5661 5713 5713 5661 5661 5661 5661 5661 5661 5661 5661 5661 5661 5661 5661 5610 5610 5610 5610 5610 5610 5610 5610 5610 5610 5610 5610 5561 5561 5561 5512 5512 5512 5512 5464 5417 5325 5193 5027 5027 5027 5067 5067 5067 5067 5109 5109 5151 5151 5151 5109 5109 5067 5067 5067 5067 5027 5027 5027 5027 5027 5027 5027 5027 5027 5067 5067 5067 5067 5067 5067 5067 5027 5027 5027 5027 5027 5027 5027 5027 5027 5027 5027 5027 5027 5067 5067 5067 5067 5067 5067 5067 5067 5067 5067 5067 5067 5067 5067 5067 5067 5109 5109 5109 5151 5151 5151 5151 5151 5151 5151 5109 5109 5109 5067 5067 5067 5027 5027 5027 5027 5027 5027 5027 5067 5067 5067 5067 5067 5067 5109 5109 5109 5151 5151 5151 5151 5151 5109 5109 5109 5109 5109 5109 5067 5027 4987 4948 4909 4909 4909 4909 4909 4909 4909 4909 4871 4871 4871 4834 4871 4871 4871 4909 4909 4909 4909 4909 4909 4909 4909 4909 4909 4909 4909 4909 4909 4909 4909 4948 4948 4948 4987 4987 4948 4948 4948 4948 4948 4948 4948 4948 4948 4948 4948 4948 4948 4909 4871 4871 4871 4871 4871 4871 4871 4871 4871 4871 4871 4871 4871 4871 4871 4871 4871 4871 4871 4871 4871 4834 4834 4834 4834 4834 4834 4834 4834 4834 4834 4797 4797 4760 4760 4797 4797 4797 4834 4797 4797 4797 4797 4797 4797 4797 4797 4871 4909 4909 4948 4948 4948 4948 4948 4948 4948 4948 4948 4948 4948 4948 4948 4948 4948 4948 4948 4987 4987 4987 4987 4987 4987 4987 4987 4987 4987 4987 4987 4987 4987 4987 4987 4948 4948 4948 4948 4948 4948 4948 4948 4948 4948 4948 4948 4948 4948 4948 4987 4987 4987 4987 5027 5027 5027 5067 5067 5067 5067 5067 5027 5067 5067 5067 5109 5109 5109 5109 5109 5109 5109 5109 5109 5109 5109 5109 5109 5109 5109 5109 5109 5109 5109 5109 5151 5151 5151 5151 5151 5151 5109 5067 5027 5027 5067 5067 5109 5109 5109 5067 5067 5067 5067 5109 5109 5151 5193 5193 5193 5193 5193 5193 5193 5193 5193 5193 5193 5193 5193 5193 5193 5236 5236 5236 5236 5236 5236 5236 5236 5236 5236 5280 5280 5280 5280 5236 5236
    0 0 0 0 0 0 0 0 0 0 0 0 0 0 0 0 0 0 0 0 0 0 0 0 0 0 0 0 0 0 0 0 0 5236 5236 5280 5280 5325 5325 5371 5371 5371 5371 5371 5325 5325 5325 5325 5325 5325 5325 5371 5371 5417 5417 5464 5464 5464 5464 5464 5464 5512 5512 5561 5561 5561 5561 5610 5610 5610 5610 5610 5610 5610 5610 5610 5610 5610 5610 5561 5561 5561 5561 5561 5561 5561 5610 5610 5610 5610 5610 5610 5610 5610 5610 5610 5610 5610 5661 5661 5661 5713 5713 5713 5713 5661 5661 5610 5561 5561 5561 5561 5561 5512 5512 5512 5561 5561 5561 5561 5561 5561 5561 5561 5561 5610 5661 5661 5713 5661 5661 5661 5661 5661 5661 5661 5661 5661 5661 5661 5610 5610 5610 5610 5610 5610 5610 5610 5610 5610 5610 5610 5610 5561 5512 5464 5325 5280 5417 5417 5417 5371 5280 5193 5109 5027 4987 5027 5027 5027 5067 5067 5067 5109 5109 5151 5151 5109 5109 5067 5067 5067 5067 5027 5027 5027 5027 5027 5027 5027 5027 5027 5027 5027 5027 5027 5027 5027 5027 5027 5027 5027 5027 5027 5027 5027 5027 5027 5027 5027 5027 5027 5027 5067 5067 5067 5067 5067 5067 5067 5067 5067 5067 5067 5067 5067 5067 5067 5109 5109 5109 5109 5151 5151 5151 5151 5151 5151 5109 5109 5109 5067 5067 5067 5027 5027 5027 5027 5027 5027 5027 5027 5067 5067 5067 5067 5067 5067 5109 5109 5109 5109 5151 5151 5151 5109 5109 5109 5109 5109 5109 5067 5027 4987 4948 4948 4909 4909 4909 4909 4909 4909 4909 4871 4871 4834 4834 4834 4871 4871 4909 4909 4909 4909 4909 4909 4909 4909 4909 4909 4909 4909 4909 4909 4909 4909 4909 4948 4948 4987 4987 4948 4948 4948 4948 4909 4909 4909 4948 4948 4948 4987 4948 4948 4909 4871 4871 4871 4871 4871 4871 4871 4871 4871 4871 4871 4871 4871 4871 4871 4871 4871 4871 4871 4871 4871 4834 4834 4834 4834 4834 4834 4834 4834 4834 4834 4797 4797 4797 4797 4797 4834 4834 4834 4797 4797 4797 4760 4797 4871 4871 4871 4909 4948 4948 4948 4948 4948 4948 4948 4948 4948 4948 4948 4948 4948 4948 4948 4948 4948 4987 4987 4987 4987 4987 4987 4987 4987 4987 4987 4987 4987 4987 4948 4948 4948 4948 4948 4948 4948 4948 4948 4948 4909 4948 4948 4948 4948 4948 4948 4948 4948 4948 4987 4987 4987 4987 5027 5027 5027 5067 5067 5067 5067 5067 5067 5067 5109 5109 5109 5151 5151 5151 5151 5151 5151 5151 5151 5109 5109 5109 5109 5109 5109 5109 5109 5109 5109 5109 5151 5151 5151 5151 5193 5193 5151 5109 5109 5109 5109 5151 5151 5151 5109 5109 5067 5067 5109 5109 5151 5193 5193 5193 5193 5193 5193 5193 5193 5193 5193 5193 5193 5193 5193 5193 5193 5236 5236 5236 5236 5236 5236 5236 5236 5236 5236 5280 5280 5280 5280 5280 5280
    0 0 0 0 0 0 0 0 0 0 0 0 0 0 0 0 0 0 0 0 0 0 0 0 0 0 0 0 0 0 0 0 0 5236 5236 5236 5280 5325 5371 5371 5371 5371 5371 5371 5325 5325 5325 5325 5325 5325 5325 5371 5417 5417 5464 5464 5464 5464 5464 5464 5464 5512 5512 5561 5561 5561 5561 5561 5610 5610 5610 5610 5610 5610 5610 5610 5610 5610 5561 5561 5561 5561 5561 5561 5561 5561 5610 5610 5610 5610 5610 5610 5661 5661 5661 5661 5661 5661 5661 5661 5661 5713 5713 5713 5713 5661 5610 5610 5561 5561 5561 5561 5512 5512 5512 5512 5512 5512 5561 5561 5561 5561 5561 5561 5561 5561 5610 5661 5661 5661 5661 5610 5610 5610 5610 5661 5661 5661 5661 5661 5661 5610 5610 5610 5610 5610 5610 5610 5610 5610 5610 5610 5561 5464 5371 5280 5151 5193 5280 5280 5280 5236 5193 5109 5027 5027 4987 5027 5027 5027 5027 5027 5067 5067 5109 5109 5109 5109 5109 5067 5067 5067 5067 5067 5027 5027 5027 5027 5027 5027 5027 5027 5027 5027 5027 5027 5027 5027 5027 5027 5027 5027 5027 5027 5027 5027 5027 5027 5027 5027 5027 5027 5027 5027 5067 5067 5067 5067 5067 5067 5067 5109 5109 5109 5109 5109 5067 5067 5109 5109 5109 5109 5151 5151 5151 5151 5151 5151 5109 5109 5109 5109 5067 5067 5027 5027 5027 5027 5027 5027 5027 5027 5027 5067 5067 5067 5067 5067 5067 5067 5067 5067 5067 5067 5109 5109 5109 5109 5109 5109 5067 5067 5027 4987 4987 4948 4948 4948 4948 4948 4909 4909 4909 4871 4871 4834 4797 4834 4834 4871 4871 4909 4909 4909 4909 4909 4909 4909 4909 4909 4909 4909 4909 4909 4909 4909 4909 4948 4948 4987 4987 4948 4948 4948 4948 4909 4909 4909 4909 4948 4948 4987 4948 4948 4909 4871 4871 4871 4871 4871 4871 4871 4871 4871 4871 4871 4871 4871 4871 4871 4871 4871 4871 4871 4871 4834 4834 4834 4834 4834 4834 4834 4834 4834 4797 4797 4797 4797 4797 4797 4834 4834 4834 4834 4797 4797 4760 4760 4797 4834 4871 4871 4909 4909 4948 4948 4948 4987 4948 4948 4948 4948 4948 4948 4948 4987 4987 4987 4987 4987 4987 4987 4987 4987 4987 4987 4987 4987 4987 4987 4987 4987 4987 4948 4948 4948 4948 4948 4948 4948 4948 4948 4909 4909 4948 4948 4948 4948 4948 4948 4948 4948 4948 4987 4987 4987 5027 5027 5027 5067 5067 5067 5067 5067 5067 5109 5109 5109 5109 5151 5151 5151 5151 5151 5151 5151 5151 5151 5109 5109 5109 5109 5109 5109 5109 5109 5151 5151 5151 5151 5151 5151 5151 5193 5193 5193 5193 5151 5151 5151 5193 5193 5151 5151 5109 5109 5109 5109 5151 5151 5193 5193 5193 5193 5193 5193 5193 5193 5193 5193 5193 5193 5193 5193 5193 5193 5236 5236 5236 5236 5236 5236 5236 5236 5236 5236 5280 5280 5280 5280 5280 5280
    0 0 0 0 0 0 0 0 0 0 0 0 0 0 0 0 0 0 0 0 0 0 0 0 0 0 0 0 0 0 0 0 0 0 5371 5371 5417 5417 5417 5417 5371 5371 5371 5371 5325 5325 5325 5325 5325 5325 5325 5371 5417 5417 5464 5464 5464 5464 5464 5464 5464 5464 5512 5512 5561 5561 5561 5561 5610 5610 5610 5610 5610 5610 5561 5561 5561 5561 5561 5561 5561 5561 5561 5561 5561 5561 5610 5610 5610 5610 5610 5610 5661 5661 5661 5661 5661 5661 5661 5661 5661 5713 5713 5713 5661 5661 5610 5610 5561 5561 5561 5561 5561 5512 5512 5512 5512 5512 5512 5512 5561 5561 5561 5512 5512 5561 5561 5561 5610 5661 5610 5610 5610 5610 5610 5661 5661 5661 5661 5661 5661 5610 5610 5610 5610 5610 5610 5610 5610 5610 5610 5610 5512 5371 5280 5193 5109 5109 5151 5193 5193 5151 5109 5067 5027 5027 4987 5027 5027 5027 5027 5027 5027 5067 5067 5109 5109 5109 5109 5067 5067 5067 5067 5067 5067 5067 5067 5067 5067 5027 5027 5027 5027 5027 5027 5027 5027 5027 5067 5067 5067 5067 5067 5067 5067 5067 5067 5027 5027 5027 5027 5027 5027 5027 5027 5067 5067 5067 5067 5067 5109 5109 5109 5109 5109 5109 5109 5067 5109 5109 5109 5109 5151 5151 5151 5151 5151 5109 5109 5109 5109 5109 5067 5067 5027 5027 5027 4987 4987 4987 5027 5027 5027 5027 5067 5067 5067 5067 5067 5067 5067 5067 5067 5027 4987 5027 5027 5067 5067 5067 5067 5067 5027 5027 4987 4987 4948 4948 4948 4948 4948 4909 4909 4871 4834 4834 4797 4797 4834 4834 4871 4909 4909 4909 4909 4909 4909 4909 4909 4909 4909 4909 4909 4909 4909 4909 4948 4948 4987 4987 4987 4948 4948 4948 4909 4909 4909 4909 4909 4948 4948 4948 4948 4909 4909 4871 4871 4871 4871 4871 4871 4871 4871 4871 4871 4871 4871 4871 4834 4834 4834 4834 4834 4834 4834 4834 4834 4834 4834 4834 4797 4797 4797 4797 4797 4797 4797 4797 4797 4797 4834 4834 4797 4797 4797 4760 4760 4725 4760 4797 4834 4834 4871 4871 4909 4909 4948 4948 4948 4948 4948 4948 4948 4948 4987 4987 4987 4987 4987 4987 4987 4987 4987 4987 4987 4987 5027 5027 5027 4987 4987 4987 4948 4948 4948 4948 4948 4948 4948 4948 4948 4948 4909 4909 4948 4948 4948 4948 4948 4948 4948 4948 4987 4987 4987 4987 5027 5027 5067 5067 5067 5067 5067 5067 5109 5109 5109 5109 5151 5151 5151 5151 5151 5151 5151 5151 5151 5151 5109 5109 5109 5109 5109 5109 5109 5109 5151 5151 5151 5151 5151 5151 5151 5193 5193 5193 5193 5236 5236 5193 5193 5193 5151 5151 5109 5109 5109 5109 5151 5151 5193 5193 5193 5193 5193 5193 5193 5193 5193 5193 5193 5193 5193 5193 5193 5193 5236 5236 5236 5236 5236 5236 5236 5236 5236 5236 5236 5236 5236 5236 5236 5236
    0 0 0 0 0 0 0 0 0 0 0 0 0 0 0 0 0 0 0 0 0 0 0 0 0 0 0 0 0 0 0 0 0 5464 5464 5464 5464 5464 5464 5417 5417 5371 5371 5371 5371 5371 5371 5371 5371 5371 5371 5371 5417 5417 5464 5464 5464 5464 5417 5417 5464 5464 5512 5512 5561 5561 5561 5561 5610 5610 5610 5610 5610 5610 5610 5610 5610 5610 5561 5561 5561 5561 5561 5561 5561 5610 5610 5610 5661 5661 5661 5661 5661 5661 5661 5661 5661 5661 5661 5661 5661 5661 5661 5661 5661 5661 5610 5610 5561 5561 5561 5561 5561 5512 5512 5512 5512 5512 5512 5512 5512 5561 5561 5512 5464 5512 5512 5561 5561 5661 5561 5561 5561 5561 5561 5661 5661 5661 5661 5661 5661 5610 5610 5610 5610 5610 5610 5610 5610 5610 5561 5561 5464 5280 5193 5151 5109 5067 5109 5109 5109 5109 5109 5067 5027 5027 4987 4987 4987 5027 5027 5027 5027 5027 5067 5067 5067 5109 5109 5067 5067 5067 5067 5067 5067 5067 5067 5067 5067 5067 5067 5027 5027 5027 5027 5027 5027 5027 5067 5067 5067 5067 5067 5067 5067 5067 5067 5027 5027 5027 5027 5027 5027 5027 5067 5067 5067 5067 5067 5067 5109 5109 5109 5109 5109 5109 5109 5109 5109 5109 5109 5109 5109 5109 5109 5109 5109 5109 5109 5109 5109 5109 5109 5067 5067 5027 5027 4987 4987 4987 4987 5027 5027 5027 5027 5027 5027 5027 5067 5067 5067 5067 5027 4987 4948 4948 4987 4987 5027 5027 5067 5067 5027 5027 4987 4987 4987 4948 4948 4948 4948 4909 4909 4871 4834 4834 4797 4797 4834 4834 4871 4871 4909 4909 4909 4909 4909 4909 4909 4909 4909 4909 4871 4871 4871 4909 4948 4948 4987 4987 4948 4948 4948 4909 4909 4909 4909 4909 4909 4909 4948 4948 4909 4909 4871 4871 4871 4834 4834 4834 4834 4834 4834 4834 4834 4834 4834 4834 4834 4834 4834 4834 4834 4834 4834 4834 4834 4834 4797 4797 4797 4797 4797 4797 4797 4797 4797 4797 4797 4797 4797 4797 4797 4797 4760 4760 4725 4725 4760 4797 4797 4797 4834 4834 4834 4871 4909 4909 4909 4909 4948 4948 4948 4987 4987 4987 4987 4987 5027 5027 5027 5027 5027 5027 5027 5027 5027 5027 5027 4987 4987 4987 4948 4948 4948 4948 4948 4948 4948 4948 4948 4948 4909 4909 4909 4948 4948 4948 4948 4948 4987 4987 4987 4987 4987 5027 5027 5067 5067 5067 5067 5067 5067 5067 5109 5109 5109 5109 5151 5151 5151 5151 5151 5151 5151 5151 5151 5151 5109 5109 5109 5109 5109 5109 5109 5109 5151 5151 5151 5151 5151 5151 5151 5193 5193 5193 5193 5236 5236 5193 5193 5193 5151 5151 5151 5151 5109 5151 5151 5151 5193 5193 5193 5193 5193 5193 5193 5193 5193 5193 5193 5193 5193 5193 5193 5193 5236 5236 5236 5236 5236 5236 5236 5236 5236 5236 5236 5236 5236 5236 5236 5236
    0 0 0 0 0 0 0 0 0 0 0 0 0 0 0 0 0 0 0 0 0 0 0 0 0 0 0 0 0 0 0 0 0 5464 5464 5464 5464 5464 5464 5417 5417 5417 5417 5371 5417 5417 5417 5417 5417 5417 5417 5417 5417 5417 5464 5464 5464 5464 5464 5464 5464 5512 5512 5561 5561 5561 5561 5561 5610 5610 5610 5610 5610 5610 5610 5610 5610 5610 5610 5561 5561 5561 5561 5610 5610 5610 5661 5661 5661 5661 5661 5661 5661 5661 5661 5661 5661 5661 5661 5661 5661 5661 5661 5661 5661 5610 5610 5610 5561 5561 5561 5561 5561 5561 5512 5512 5512 5512 5512 5512 5561 5610 5661 5512 5464 5512 5561 5561 5561 5661 5561 5561 5512 5512 5561 5713 5713 5713 5661 5661 5661 5661 5610 5610 5610 5610 5561 5610 5610 5610 5610 5610 5464 5325 5236 5193 5151 5109 5109 5067 5067 5067 5027 5027 5027 4987 4987 4987 4987 4987 4987 5027 5027 5027 5027 5067 5067 5067 5067 5067 5067 5067 5067 5067 5067 5067 5067 5067 5067 5067 5067 5067 5027 5027 5027 5027 5027 5067 5067 5067 5067 5067 5067 5067 5067 5067 5067 5027 5027 5027 5027 5027 5027 5067 5067 5067 5067 5067 5067 5067 5109 5109 5109 5109 5109 5109 5109 5109 5109 5109 5109 5109 5109 5109 5109 5109 5109 5109 5109 5109 5109 5109 5109 5109 5067 5067 5027 5027 4987 4987 4987 5027 5027 5027 5067 5067 5067 5067 5067 5067 5067 5067 5027 4987 4948 4909 4948 4948 4987 5027 5027 5067 5027 5027 5027 4987 4987 4987 4948 4948 4909 4909 4909 4871 4834 4834 4797 4797 4797 4834 4834 4871 4871 4909 4871 4909 4909 4909 4909 4909 4909 4871 4871 4871 4871 4909 4948 4987 4987 4987 4948 4948 4948 4909 4909 4909 4871 4871 4909 4909 4909 4909 4909 4871 4871 4871 4871 4834 4834 4834 4834 4834 4834 4834 4834 4834 4834 4834 4834 4834 4834 4834 4834 4834 4834 4834 4834 4834 4797 4797 4797 4797 4797 4797 4797 4797 4797 4797 4797 4797 4797 4760 4760 4760 4760 4725 4725 4725 4760 4760 4760 4797 4797 4797 4797 4834 4834 4871 4871 4871 4909 4909 4948 4987 5027 5027 5027 5067 5067 5067 5067 5067 5027 5027 5027 5027 5027 5027 5027 4987 4987 4948 4948 4948 4948 4948 4948 4948 4948 4948 4948 4948 4909 4909 4909 4909 4948 4948 4948 4948 4987 4987 4987 5027 5027 5027 5067 5067 5067 5067 5067 5067 5067 5109 5109 5109 5151 5151 5151 5151 5151 5151 5193 5193 5151 5151 5151 5151 5109 5109 5109 5109 5109 5109 5109 5151 5151 5151 5151 5151 5151 5151 5193 5193 5193 5193 5193 5236 5236 5193 5193 5193 5193 5151 5151 5151 5151 5151 5151 5193 5193 5193 5193 5193 5193 5193 5193 5193 5193 5193 5193 5193 5193 5193 5193 5193 5236 5236 5236 5236 5236 5236 5236 5236 5236 5236 5236 5236 5236 5236 5236 5236
    0 0 0 0 0 0 0 0 0 0 0 0 0 0 0 0 0 0 0 0 0 0 0 0 0 0 0 0 0 0 0 0 0 5464 5464 5464 5464 5464 5464 5464 5464 5417 5417 5417 5464 5464 5464 5464 5464 5464 5417 5417 5417 5417 5464 5464 5464 5464 5464 5512 5512 5512 5561 5561 5561 5561 5610 5610 5610 5610 5610 5610 5610 5610 5610 5610 5610 5610 5610 5610 5610 5610 5610 5610 5610 5661 5661 5661 5661 5661 5661 5661 5661 5661 5661 5661 5661 5661 5661 5661 5661 5661 5661 5661 5661 5610 5610 5610 5610 5610 5610 5610 5561 5561 5561 5561 5561 5561 5561 5610 5661 5713 5713 5610 5561 5561 5561 5561 5610 5661 5561 5561 5561 5561 5610 5713 5713 5713 5713 5713 5661 5661 5661 5661 5610 0 5610 5610 5610 5610 5610 5610 5512 5417 5371 5280 5236 5193 5193 5151 5109 5067 5027 5027 5027 5027 4987 4987 4987 4987 4987 5027 5027 5067 5067 5109 5109 5109 5109 5109 5109 5109 5067 5067 5067 5067 5067 5067 5067 5067 5067 5067 5067 5027 5027 5027 5027 5067 5067 5067 5067 5067 5067 5067 5067 5067 5067 5027 5027 5027 5027 5027 5027 5067 5067 5067 5067 5067 5067 5067 5109 5109 5109 5109 5109 5109 5109 5109 5109 5109 5109 5109 5109 5109 5109 5109 5109 5109 5109 5109 5151 5151 5109 5109 5109 5067 5067 5027 5027 4987 4987 5027 5027 5027 5067 5067 5067 5067 5067 5067 5067 5067 5067 4987 4948 4909 4909 4948 4987 5027 5067 5067 5067 5067 5027 5027 5027 4987 4987 4987 4948 4948 4948 4909 4871 4834 4834 4797 4797 4834 4834 4871 4909 4871 4871 4871 4871 4871 4871 4871 4871 4871 4871 4871 4871 4909 4948 4987 4987 4948 4948 4948 4909 4909 4909 4871 4871 4871 4909 4909 4909 4909 4871 4871 4871 4871 4871 4834 4834 4834 4834 4834 4834 4834 4834 4834 4834 4834 4834 4834 4834 4834 4834 4834 4834 4834 4834 4797 4797 4797 4797 4797 4797 4797 4797 4797 4797 4797 4797 4797 4760 4760 4760 4760 4725 4725 4725 4725 4725 4760 4760 4760 4760 4760 4760 4797 4797 4834 4834 4834 4871 4948 4987 5027 5067 5067 5067 5109 5109 5109 5109 5067 5067 5027 5027 5027 5027 5027 5027 4987 4987 4948 4948 4948 4948 4948 4948 4948 4948 4948 4948 4948 4909 4909 4909 4909 4948 4948 4948 4948 4987 4987 5027 5067 5067 5067 5067 5067 5109 5109 5109 5109 5109 5109 5109 5151 5151 5151 5151 5193 5193 5193 5193 5193 5193 5151 5151 5151 5109 5109 5109 5109 5109 5109 5151 5151 5151 5193 5193 5193 5193 5193 5193 5193 5193 5193 5193 5236 5236 5236 5193 5193 5193 5193 5193 5193 5193 5193 5193 5193 5193 5193 5193 5236 5236 5236 5236 5236 5236 5193 5193 5236 5236 5236 5236 5236 5236 5236 5236 5236 5236 5236 5236 5236 5236 5236 5236 5280 5280 5280 5280 5280
    0 0 0 0 0 0 0 0 0 0 0 0 0 0 0 0 0 0 0 0 0 0 0 0 0 0 0 0 0 0 0 0 0 5464 5464 5464 5464 5464 5464 5464 5464 5464 5464 5464 5512 5512 5561 5561 5561 5512 5512 5464 5417 5417 5464 5512 5512 5512 5512 5512 5561 5561 5561 5610 5610 5610 5610 5610 5610 5610 5610 5610 5610 5661 5661 5661 5661 5610 5610 5610 5610 5610 5610 5661 5661 5661 5713 5713 5713 5713 5713 5713 5661 5661 5661 5661 5661 5661 5661 5661 5661 5661 5661 5661 5661 5610 5610 5610 5610 5610 5610 5610 5610 5610 5610 5561 5561 5610 5610 5661 5661 5713 5713 5661 5610 5610 5610 5610 5610 5661 5610 5610 5610 5610 5661 5713 5713 5713 5713 5713 5713 5713 5713 5713 5713 5661 5610 5610 5610 5610 5610 5610 5561 5512 5464 5417 5371 5325 5280 5236 5193 5109 5067 5027 5027 5027 4987 4987 4987 4987 5027 5027 5067 5109 5151 5151 5151 5151 5151 5109 5109 5109 5109 5109 5109 5067 5067 5067 5067 5067 5067 5067 5067 5067 5027 5027 5067 5067 5067 5067 5067 5067 5067 5067 5067 5067 5067 5027 5027 5027 5027 5027 5067 5067 5067 5067 5067 5067 5067 5067 5109 5109 5109 5109 5109 5109 5109 5109 5109 5109 5109 5109 5109 5109 5109 5109 5109 5109 5109 5151 5151 5151 5151 5151 5109 5109 5067 5067 5027 4987 4987 5027 5027 5027 5067 5067 5067 5067 5067 5067 5067 5067 5067 5027 4948 4909 4909 4948 4987 5027 5067 5109 5067 5067 5067 5067 5027 5027 5027 4987 4987 4987 4948 4948 4909 4871 4834 4834 4834 4871 4871 4871 4909 4909 4871 4871 4871 4871 4871 4871 4871 4871 4871 4871 4871 4909 4948 4987 4987 4948 4948 4948 4909 4909 4909 4871 4871 4871 4871 4871 4871 4871 4871 4871 4871 4871 4871 4871 4834 4834 4834 4834 4834 4834 4834 4834 4834 4834 4797 4834 4834 4834 4834 4834 4834 4834 4834 4797 4797 4797 4797 4797 4797 4797 4797 4797 4797 4797 4797 4760 4760 4760 4760 4760 4725 4725 4760 4760 4760 4760 4760 4760 4760 4760 4725 4760 4760 4760 4797 4834 4871 4948 4987 5067 5109 5109 5109 5151 5151 5151 5109 5109 5109 5067 5027 5027 5027 5027 5027 4987 4948 4948 4948 4948 4948 4948 4948 4948 4948 4948 4948 4948 4948 4948 4948 4948 4948 4948 4948 4987 5027 5027 5067 5109 5109 5109 5109 5109 5109 5109 5109 5109 5109 5151 5151 5151 5193 5193 5193 5193 5193 5193 5193 5193 5193 5193 5151 5151 5151 5109 5109 5109 5109 5109 5151 5151 5193 5193 5193 5193 5193 5193 5193 5193 5193 5193 5236 5236 5236 5236 5236 5236 5236 5236 5193 5193 5193 5193 5193 5193 5193 5193 5236 5236 5236 5236 5236 5236 5236 5236 5236 5236 5236 5236 5236 5236 5236 5236 5236 5236 5236 5236 5236 5236 5236 5236 5236 5280 5280 5280 5280 5280
    0 0 0 0 0 0 0 0 0 0 0 0 0 0 0 0 0 0 0 0 0 0 0 0 0 0 0 0 0 0 0 0 0 5464 5464 5464 5464 5464 5464 5464 5464 5464 5512 5512 5561 5610 5610 5610 5610 5610 5561 5561 5512 5512 5561 5561 5561 5561 5561 5561 5610 5610 5610 5610 5610 5610 5610 5610 5610 5610 5610 5610 5661 5661 5661 5661 5661 5661 5610 5610 5610 5661 5661 5661 5713 5713 5713 5713 5713 5713 5713 5713 5713 5713 5661 5661 5661 5661 5661 5661 5661 5661 5661 5661 5661 5610 5610 5610 5610 5610 5610 5610 5610 5610 5610 5610 5610 5661 5661 5661 5661 5713 5713 5661 5661 5661 5661 5661 5661 5661 5661 5661 5661 5661 5661 5713 5713 5713 5713 5713 5713 5713 5713 5713 5713 5661 5610 5610 5610 5610 5610 5610 5561 5561 5561 5512 5464 5417 5417 5417 5371 5280 5193 5109 5067 5027 4987 4987 4987 4987 5027 5067 5109 5151 5193 5236 5236 5193 5193 5151 5151 5109 5109 5109 5109 5109 5109 5067 5067 5067 5067 5067 5067 5067 5067 5027 5067 5067 5067 5067 5067 5067 5067 5067 5067 5067 5067 5027 5027 5027 5067 5067 5067 5067 5067 5067 5067 5109 5109 5109 5067 5109 5109 5109 5109 5109 5109 5109 5109 5109 5109 5109 5109 5109 5109 5109 5109 5109 5109 5151 5151 5151 5151 5151 5151 5109 5109 5067 5067 5027 5027 5027 5027 5027 5067 5067 5067 5067 5067 5067 5067 5067 5067 5027 4987 4948 4909 4948 4987 5027 5067 5109 5109 5109 5109 5067 5067 5067 5027 5027 5027 4987 4987 4948 4948 4909 4871 4871 4871 4909 4909 4948 4987 4987 4948 4909 4909 4909 4909 4948 4948 4948 4948 4909 4909 4948 4987 4987 4948 4948 4948 4948 4909 4909 4909 4871 4871 4871 4871 4871 4909 4909 4871 4871 4871 4871 4871 4871 4871 4871 4834 4834 4834 4834 4834 4834 4834 4834 4834 4834 4834 4834 4834 4834 4834 4834 4834 4834 4834 4834 4797 4797 4797 4797 4797 4797 4797 4797 4797 4760 4760 4760 4760 4760 4760 4760 4760 4760 4760 4760 4760 4760 4725 4725 4725 4725 4760 4760 4760 4797 4871 4948 5027 5109 5109 5109 5151 5151 5151 5151 5151 5151 5151 5109 5067 4987 0 0 4948 4948 4948 4948 4948 4948 4948 4948 4948 4948 4948 4948 4948 4948 4948 4948 4948 4987 4987 4987 4987 5027 5067 5067 5109 5109 5151 5151 5109 5109 5109 5109 5109 5151 5151 5151 5193 5193 5193 5193 5193 5193 5193 5193 5193 5193 5193 5193 5193 5151 5151 5151 5109 5109 5109 5151 5151 5193 5193 5236 5236 5236 5236 5193 5193 5193 5193 5193 5236 5236 5236 5236 5236 5236 5236 5236 5236 5236 5236 5236 5193 5193 5236 5236 5236 5236 5280 5280 5280 5280 5280 5280 5280 5280 5280 5280 5280 5280 5236 5236 5236 5236 5236 5236 5236 5236 5236 5236 5236 5280 5280 5280 5280 5280
    0 0 0 0 0 0 0 0 0 0 0 0 0 0 0 0 0 0 0 0 0 0 0 0 0 0 0 0 0 0 0 0 0 5464 5464 5464 5464 5464 5464 5464 5464 5512 5561 5561 5610 5661 5713 5713 5713 5661 5661 5661 5661 5610 5610 5610 5610 5610 5610 5610 5610 5610 5610 5610 5610 5610 5610 5610 5610 5610 5610 5610 5661 5661 5661 5661 5661 5661 5661 5661 5661 5661 5661 5713 5713 5713 5713 5713 5713 5713 5713 5713 5713 5713 5713 5713 5661 5661 5661 5661 5661 5661 5661 5661 5661 5610 5610 5610 5610 5610 5610 5610 5610 5610 5661 5661 5661 5713 5713 5713 5713 5713 5713 5713 5713 5713 5713 5713 5661 5661 5661 5661 5661 5661 5661 5661 5713 5713 5713 5713 5713 5713 5713 5713 5713 5661 5610 5610 5610 5610 5610 5610 5561 5610 5610 5561 5561 5561 5561 5561 5512 5464 5325 5193 5109 5027 4987 4987 4987 4987 5067 5109 5193 5236 5280 5280 5280 5280 5236 5193 5193 5151 5109 5109 5109 5109 5109 5109 5067 5067 5067 5067 5067 5067 5067 5067 5067 5067 5067 5067 5067 5067 5067 5067 5067 5067 5067 5067 5067 5067 5067 5067 5067 5067 5067 5067 5109 5109 5109 5109 5109 5109 5109 5109 5109 5109 5109 5109 5109 5109 5109 5109 5109 5109 5109 5109 5109 5109 5109 5151 5151 5151 5151 5151 5151 5151 5109 5109 5067 5067 5027 5027 5027 5067 5067 5067 5067 5067 5067 5067 5067 5067 5067 5027 5027 4987 4987 5027 5027 5067 5067 5109 5109 5109 5109 5109 5067 5067 5067 5067 5027 5027 5027 4987 4948 4948 4909 4909 4909 4948 4987 4987 5027 5027 4987 4948 4948 4948 4948 4987 4987 4987 4987 4987 4987 5027 5027 4987 4987 4948 4948 4948 4909 4909 4909 4909 4871 4871 4909 4909 4909 4909 4909 4909 4871 4871 4871 4871 4871 4871 4871 4871 4871 4871 4834 4834 4834 4834 4834 4834 4834 4871 4871 4871 4871 4871 4834 4834 4834 4834 4834 4797 4797 4797 4834 4834 4797 4797 4797 4797 4797 4797 4797 4797 4797 4797 4834 4834 4797 4797 4797 4760 4725 4725 4725 4725 4760 4760 4760 4834 4909 4987 5067 5109 5109 5151 5151 5151 5151 5151 5151 5151 5151 5151 5151 5067 5067 5027 5027 4987 4987 4948 4948 4948 4948 4948 4948 4987 4987 4987 4948 4948 4948 4987 4987 5027 5027 5027 5067 5067 5109 5109 5151 5151 5151 5151 5151 5151 5151 5151 5151 5151 5151 5193 5193 5193 5236 5193 5193 5193 5193 5193 5193 5193 5193 5193 5193 5151 5151 5151 5151 5151 5151 5151 5193 5193 5236 5236 5236 5236 5236 5236 5236 5193 5193 5193 5236 5236 5236 5236 5236 5236 5236 5236 5236 5236 5236 5236 5236 5236 5236 5236 5236 5280 5325 5325 5325 5325 5325 5325 5325 5325 5325 5280 5280 5280 5280 5280 5236 5236 5236 5236 5236 5236 5236 5236 5236 5280 5280 5280 5280 5280
    0 0 0 0 0 0 0 0 0 0 0 0 0 0 0 0 0 0 0 0 0 0 0 0 0 0 0 0 0 0 0 0 0 5464 5464 5464 5512 5512 5512 5512 5512 5512 5561 5610 5661 5661 5713 5713 5713 5661 5661 5661 5661 5610 5610 5661 5661 5661 5661 5661 5610 5610 5610 5610 5610 5610 5610 5610 5610 5610 5610 5610 5661 5661 5661 5661 5661 5661 5661 5661 5661 5661 5713 5713 5713 5713 5713 5713 5765 5765 5765 5713 5713 5713 5713 5713 5713 5713 5713 5713 5713 5661 5661 5661 5661 5610 5610 5610 5610 5610 5610 5610 5661 5661 5661 5713 5713 5765 5765 5765 5713 5713 5713 5713 5713 5713 5713 5713 5661 5661 5661 5661 5661 5661 5661 5661 5713 5713 5713 5713 5713 5713 5713 5713 5713 5661 5661 5610 5610 5610 5610 5610 5610 5610 5610 5610 5610 5610 5610 5610 5610 5561 5464 5325 5193 5027 4987 4987 4987 4987 5109 5193 5236 5280 5325 5325 5325 5325 5280 5236 5236 5193 5151 5151 5109 5109 5109 5109 5109 5067 5067 5067 5067 5067 5067 5067 5067 5067 5067 5067 5067 5067 5067 5067 5067 5067 5067 5067 5067 5067 5067 5067 5067 5067 5109 5109 5109 5109 5109 5109 5109 5109 5109 5109 5109 5109 5109 5109 5109 5109 5109 5109 5109 5109 5109 5109 5109 5109 5109 5151 5151 5151 5151 5151 5151 5151 5109 5109 5109 5067 5067 5067 5067 5067 5067 5067 5067 5067 5067 5067 5067 5067 5027 5027 5027 5027 5027 5067 5067 5067 5067 5067 5067 5067 5109 5109 5109 5067 5067 5067 5067 5067 5027 5027 4987 4987 4948 4948 4987 4987 5027 5027 5027 5027 4987 4987 4987 4987 5027 5027 5027 5027 5027 5027 5027 5027 5027 5027 4987 4987 4948 4948 4909 4909 4909 4909 4909 4909 4909 4909 4909 4909 4909 4909 4909 4871 4871 4871 4871 4871 4871 4871 4871 4871 4871 4871 4871 4834 4834 4871 4871 4871 4909 4909 4909 4871 4871 4871 4834 4834 4834 4797 4834 4834 4834 4834 4834 4834 4834 4834 4834 4834 4834 4834 4834 4871 4871 4871 4871 4871 4797 4760 4725 4725 4725 4725 4760 4760 4760 4871 4948 5027 5067 5109 5109 5151 5151 5151 5151 5151 5151 5151 5151 5151 5151 5067 5067 5027 5027 4987 4987 4948 4948 4948 4987 4987 5027 4987 4987 4987 4987 4987 4987 5027 5067 5067 5109 5109 5109 5109 5151 5151 5151 5193 5151 5151 5151 5151 5151 5151 5151 5151 5193 5193 5236 5236 5236 5193 5193 5193 5193 5193 5193 5193 5193 5193 5193 5151 5151 5151 5151 5151 5151 5193 5193 5193 5236 5236 5236 5236 5236 5236 5193 5193 5193 5193 5236 5236 5236 5236 5236 5236 5236 5236 5236 5236 5236 5236 5236 5236 5236 5236 5280 5325 5371 5371 5417 5417 5417 5417 5417 5371 5371 5325 5325 5280 5280 5280 5236 5236 5236 5236 5236 5236 5236 5236 5236 5280 5280 5280 5280 5280
    0 0 0 0 0 0 0 0 0 0 0 0 0 0 0 0 0 0 0 0 0 0 0 0 0 0 0 0 0 0 0 0 0 5464 5464 5464 5512 5512 5512 5512 5561 5561 5610 5610 5661 5661 5661 5661 5661 5661 5661 5661 5661 5661 5661 5661 5661 5610 5610 5610 5610 5610 5610 5610 5610 5610 5610 5610 5610 5610 5610 5610 5661 5661 5661 5661 5713 5661 5661 5661 5713 5713 5713 5713 5713 5713 5713 5765 5765 5765 5765 5765 5765 5713 5713 5713 5713 5713 5713 5713 5713 5713 5661 5661 5661 5661 5610 5610 5610 5610 5610 5661 5661 5661 5661 5713 5713 5765 5765 5765 5713 5713 5713 5713 5713 5713 5713 5713 5713 5661 5661 5661 5661 5661 5661 5661 5713 5713 5713 5713 5713 5713 5713 5713 5713 5713 5661 5661 5610 5610 5610 5610 5610 5610 5610 5610 5610 5610 5610 5610 5610 5610 5561 5561 5464 5371 5236 5193 5067 4987 5193 5280 5325 5325 5325 5325 5325 5325 5325 5280 5280 5236 5193 5193 5151 5151 5109 5109 5109 5109 5109 5067 5067 5067 5067 5067 5067 5067 5067 5067 5067 5067 5067 5067 5067 5067 5067 5067 5067 5067 5067 5067 5067 5109 5109 5109 5109 5109 5109 5109 5109 5109 5109 5109 5109 5109 5109 5109 5109 5109 5109 5109 5109 5109 5109 5109 5109 5109 5109 5151 5151 5151 5151 5151 5151 5151 5151 5109 5109 5109 5109 5067 5067 5067 5067 5067 5067 5067 5027 5027 5027 5027 5027 5027 5027 5027 5027 5067 5067 5067 5067 5067 5067 5067 5067 5067 5067 5067 5067 5067 5067 5067 5027 5027 5027 4987 4987 5027 5027 5027 5027 5027 5027 5027 4987 4987 5027 5027 5027 5027 5027 5027 5027 5027 5027 5027 5027 5027 5027 4987 4987 4948 4948 4909 4909 4909 4909 4909 4909 4909 4909 4909 4909 4909 4909 4909 4909 4909 4909 4871 4871 4909 4909 4909 4871 4871 4871 4871 4871 4871 4909 4909 4909 4909 4909 4909 4871 4871 4871 4834 4834 4834 4834 4834 4871 4871 4871 4871 4909 4909 4909 4909 4909 4909 4909 4909 4909 4948 4948 4987 4909 4797 4725 4725 4725 4725 4760 4760 4760 4909 5027 5067 5109 5109 5109 5151 5151 5151 5151 5151 5151 5151 5151 5151 5151 5109 5067 5067 5027 5027 4987 4948 4948 4987 4987 5027 5067 5027 5027 5027 5027 5027 5027 5109 5109 5151 5151 5151 5151 5151 5151 5193 5193 5193 5193 5151 5151 5151 5151 5151 5151 5151 5193 5193 5193 5236 5236 5193 5193 5193 5193 5193 5193 5193 5193 5193 5151 5151 5151 5151 5151 5151 5193 5193 5193 5236 5236 5236 5236 5236 5236 5236 5193 5193 5193 5193 5236 5236 5236 5236 5236 5236 5236 5236 5236 5236 5236 5236 5236 5236 5280 5280 5280 5371 5371 5417 5417 5371 5371 5371 5417 5371 5371 5325 5325 5280 5280 5280 5236 5236 5236 5236 5236 5236 5236 5236 5236 5280 5280 5280 5280 5280
    0 0 0 0 0 0 0 0 0 0 0 0 0 0 0 0 0 0 0 0 0 0 0 0 0 0 0 0 0 0 0 0 0 5464 5464 5512 5561 5561 5561 5561 5561 5610 5610 5661 5661 5661 5661 5661 5661 5661 5661 5661 5661 5661 5661 5661 5661 5661 5610 5610 5610 5610 5610 5610 5610 5610 5610 5610 5610 5610 5610 5661 5661 5661 5661 5661 5713 5713 5713 5713 5713 5713 5713 5713 5713 5713 5765 5765 5765 5765 5765 5765 5765 5765 5713 5713 5713 5713 5713 5713 5713 5713 5713 5713 5661 5661 5610 5610 5610 5610 5610 5661 5661 5661 5713 5713 5765 5765 5765 5765 5765 5713 5713 5661 5713 5713 5713 5713 5713 5661 5661 5661 5661 5661 5661 5661 5713 5713 5713 5713 5713 5713 5713 5713 5713 5765 5713 5661 5661 5661 5610 5610 5610 5610 5610 5610 5610 5610 5610 5610 5561 5561 5512 5464 5417 5371 5371 5371 5325 5325 5325 5325 5325 5325 5325 5325 5325 5325 5325 5325 5280 5280 5236 5236 5193 5193 5151 5109 5109 5109 5109 5109 5109 5067 5067 5067 5067 5067 5067 5067 5067 5067 5067 5067 5027 5027 5067 5067 5067 5067 5067 5067 5067 5109 5109 5109 5109 5109 5109 5109 5109 5109 5109 5109 5109 5109 5109 5109 5109 5109 5109 5109 5109 5109 5109 5109 5109 5109 5109 5109 5151 5151 5151 5151 5151 5151 5151 5109 5109 5109 5109 5109 5109 5067 5067 5067 5067 5067 5067 5067 5067 5067 5027 5027 5027 5027 5027 5067 5067 5067 5067 5067 5067 5067 5067 5067 5067 5067 5067 5067 5067 5027 5027 5027 5027 5027 5027 5027 5027 5027 5027 5027 5027 5027 5027 5027 5027 5027 5027 5027 5027 5027 5027 5027 5027 5027 5027 5027 5027 4987 4987 4948 4948 4909 4909 4909 4909 4909 4909 4909 4909 4909 4909 4909 4909 4909 4909 4909 4909 4909 4909 4909 4909 4909 4909 4909 4909 4909 4909 4909 4948 4948 4948 4948 4948 4909 4909 4909 4871 4871 4871 4834 4871 4909 4948 4987 4948 4948 4948 4987 4987 4987 4987 4948 4948 4948 4948 4948 4987 4987 4987 0 0 0 0 0 0 0 0 5109 5109 5109 5109 5109 5109 5109 5151 5151 5151 5151 5151 5151 5151 5151 5151 5109 5067 5067 5027 5027 4987 4987 4987 4987 5027 5067 5067 5067 5067 5067 5067 5067 5109 5151 5193 5193 5193 5193 5193 5193 5193 5193 5193 5193 5193 5151 5151 5151 5151 5151 5151 5151 5193 5193 5193 5193 5193 5193 5193 5193 5193 5151 5193 5193 5193 5193 5151 5151 5151 5151 5151 5193 5193 5193 5236 5236 5236 5236 5236 5236 5236 5193 5193 5193 5193 5193 5236 5236 5236 5236 5236 5236 5236 5236 5236 5236 5236 5236 5280 5280 5280 5280 5325 5371 5371 5371 5371 5371 5371 5371 5371 5371 5371 5325 5325 5280 5280 5280 5236 5236 5236 5236 5236 5236 5236 5236 5236 5236 5280 5280 5280 5280
    0 0 0 0 0 0 0 0 0 0 0 0 0 0 0 0 0 0 0 0 0 0 0 0 0 0 0 0 0 0 0 0 0 0 0 5661 5610 5610 5610 5610 5610 5661 5661 5661 5661 5661 5661 5661 5661 5661 5661 5661 5661 5661 5661 5661 5661 5661 5661 5661 5610 5610 5610 5610 5610 5610 5610 5610 5610 5610 5661 5661 5661 5661 5661 5713 5713 5713 5713 5713 5713 5713 5713 5713 5713 5713 5765 5765 5765 5765 5765 5765 5765 5765 5765 5713 5713 5713 5713 5713 5713 5713 5713 5713 5713 5661 5661 5610 5610 5610 5661 5661 5661 5713 5713 5765 5765 5765 5765 5765 5765 5765 5713 5713 5713 5713 5713 5713 5713 5713 5661 5661 5661 5661 5661 5713 5713 5713 5713 5713 5713 5713 5713 5765 5765 5765 5765 5713 5713 5661 5661 5661 5661 5610 5610 5610 5610 5610 5610 5610 5561 5512 5464 5417 5417 5371 5371 5371 5325 5325 5325 5325 5325 5325 5371 5371 5371 5371 5325 5325 5325 5280 5280 5280 5280 5236 5193 5151 5109 5109 5109 5109 5109 5109 5109 5109 5109 5067 5067 5067 5067 5067 5067 5067 5027 5027 5067 5067 5067 5067 5067 5067 5109 5109 5109 5109 5109 5109 5109 5109 5109 5109 5109 5109 5109 5109 5109 5109 5109 5109 5109 5109 5109 5109 5109 5109 5109 5109 5109 5109 5109 5151 5151 5151 5151 5151 5151 5109 5109 5109 5109 5109 5109 5109 5067 5067 5067 5067 5067 5067 5067 5067 5067 5067 5067 5067 5067 5067 5067 5067 5067 5067 5067 5067 5067 5067 5067 5067 5067 5067 5067 5067 5027 5027 5027 5027 5027 5027 5027 5027 5027 5027 5027 4987 5027 5027 5027 5027 5027 5027 5027 5027 5027 5027 5027 5027 5027 5027 5027 5027 4987 4987 4948 4948 4909 4909 4909 4909 4909 4909 4909 4948 4909 4909 4909 4909 4909 4909 4909 4909 4909 4909 4909 4909 4948 4948 4948 4948 4948 4948 4987 4987 4987 4987 4948 4948 4909 4948 4948 4987 5027 5027 0 0 0 5027 5027 5027 5027 5027 5027 4987 4987 4987 4948 4948 4948 4987 4987 4987 4987 0 0 0 0 0 0 0 5109 5109 5109 5109 5109 5109 5109 5151 5151 5151 5151 5151 5151 5151 5151 5151 5151 5109 5109 5067 5067 5027 4987 4987 4987 4987 5027 5067 5109 5109 5109 5109 5109 5109 5109 5151 5193 5193 5193 5193 5193 5193 5193 5193 5193 5193 5193 5151 5151 5151 5151 5151 5151 5151 5151 5193 5193 5193 5193 5193 5193 5151 5151 5151 5151 5193 5193 5193 5151 5151 5151 5151 5193 5193 5236 5236 5236 5236 5236 5236 5236 5236 5236 5193 5193 5193 5193 5193 5236 5236 5236 5236 5236 5236 5280 5280 5280 5280 5280 5280 5280 5280 5280 5280 5325 5371 5371 5371 5371 5371 5371 5371 5371 5371 5325 5325 5325 5280 5280 5280 5236 5236 5280 5280 5280 5280 5280 5280 5280 5236 5280 5280 5280 5280
    0 0 0 0 0 0 0 0 0 0 0 0 0 0 0 0 0 0 0 0 0 0 0 0 0 0 0 0 0 0 0 0 0 0 5713 5713 5661 5661 5661 5661 5661 5661 5661 5661 5661 5661 5661 5661 5661 5661 5661 5661 5661 5661 5661 5661 5661 5661 5661 5661 5661 5610 5610 5610 5610 5610 5610 5610 5610 5610 5661 5661 5661 5661 5713 5713 5713 5713 5713 5713 5713 5713 5713 5713 5765 5765 5765 5765 5765 5765 5765 5765 5765 5765 5765 5765 5713 5713 5713 5765 5765 5765 5765 5765 5713 5713 5661 5661 5661 5661 5661 5713 5713 5713 5765 5765 5765 5765 5765 5765 5765 5765 5765 5713 5713 5713 5713 5713 5713 5713 5713 5713 5713 5713 5713 5713 5713 5713 5713 5713 5713 5713 5765 5765 5765 5765 5765 5765 5713 5713 5713 5661 5661 5661 5661 5661 5661 5610 5610 5610 5561 5512 5464 5417 5371 5371 5371 5371 5325 5325 5325 5325 5325 5325 5371 5371 5371 5371 5325 5325 5325 5325 5325 5325 5325 5280 5280 5236 5151 5109 5109 5109 5109 5109 5109 5109 5109 5109 5067 5067 5067 5067 5067 5067 5067 5067 5067 5067 5067 5067 5067 5067 5109 5109 5109 5109 5109 5109 5109 5109 5109 5109 5109 5109 5109 5109 5109 5109 5109 5109 5109 5109 5109 5109 5109 5109 5109 5109 5109 5109 5109 5109 5109 5109 5109 5109 5109 5109 5109 5109 5109 5109 5109 5109 5109 5109 5067 5067 5067 5067 5067 5067 5067 5067 5067 5067 5067 5067 5067 5067 5067 5067 5067 5067 5067 5067 5067 5067 5067 5067 5067 5067 5067 5067 5067 5027 5027 5027 5027 5027 5027 5027 5027 4987 5027 5027 5027 5027 5027 5027 5027 5027 5027 4987 5027 5027 5027 5027 5027 5027 5027 4987 4987 4948 4909 4909 4909 4909 4909 4909 4909 4948 4948 4948 4909 4909 4909 4909 4909 4909 4909 4909 4909 4909 4948 4948 4987 4948 4987 4987 4987 4987 4987 4987 4987 4948 4948 4987 4987 5027 5027 5027 0 0 0 5027 5027 5027 5027 5027 5027 4987 4987 4987 4948 4948 4948 4987 4987 4987 4987 0 0 0 0 0 0 0 5109 5109 5109 5109 5109 5109 5109 5109 5151 5151 5151 5151 5151 5151 5151 5151 5109 5109 5109 5109 5067 5027 5027 4987 4987 4987 5027 5067 5109 5109 5109 5109 5109 5109 5151 5151 5151 5151 5151 5151 5151 5193 5193 5193 5193 5193 5193 5151 5151 5151 5151 5151 5151 5151 5151 5151 5151 5193 5193 5193 5193 5151 5151 5151 5151 5193 5193 5193 5193 5151 5193 5193 5193 5236 5236 5236 5236 5236 5236 5236 5236 5236 5236 5193 5151 5151 5193 5193 5236 5236 5236 5236 5236 5280 5280 5280 5280 5280 5280 5280 5280 5280 5280 5325 5325 5325 5371 5371 5371 5371 5371 5371 5371 5325 5325 5325 5280 5280 5280 5280 5280 5280 5280 5280 5280 5280 5280 5280 5280 5280 5280 5280 5280 5280
    0 0 0 0 0 0 0 0 0 0 0 0 0 0 0 0 0 0 0 0 0 0 0 0 0 0 0 0 0 0 0 0 0 0 5713 5713 5713 5661 5661 5661 5661 5661 5661 5661 5661 5661 5661 5661 5661 5661 5661 5661 5661 5661 5661 5661 5661 5661 5661 5661 5661 5610 5610 5610 5610 5610 5610 5610 5610 5610 5661 5661 5661 5713 5713 5713 5713 5713 5713 5713 5713 5765 5765 5765 5765 5765 5765 5765 5765 5765 5818 5818 5765 5765 5765 5765 5713 5765 5765 5765 5765 5765 5765 5765 5765 5713 5713 5713 5713 5713 5713 5713 5713 5765 5765 5765 5765 5765 5765 5765 5765 5765 5765 5713 5713 5713 5713 5713 5713 5713 5713 5713 5713 5713 5713 5713 5713 5713 5713 5713 5713 5713 5765 5765 5765 5765 5765 5765 5765 5713 5713 5713 5713 5713 5713 5713 5713 5661 5713 5661 5561 5512 5512 5464 5371 5371 5371 5371 5325 5325 5325 5325 5325 5325 5371 5371 5371 5371 5371 5325 5325 5325 5325 5325 5325 5325 5280 5280 5193 5109 5151 5151 5193 5151 5151 5151 5109 5109 5067 5067 5067 5067 5067 5067 5067 5067 5067 5067 5067 5067 5067 5067 5109 5109 5109 5109 5109 5109 5109 5109 5109 5109 5067 5067 5067 5067 5067 5067 5109 5109 5109 5109 5109 5109 5109 5109 5109 5109 5109 5109 5109 5109 5109 5109 5109 5109 5109 5109 5109 5109 5109 5109 5109 5109 5109 5109 5109 5109 5067 5067 5109 5109 5109 5109 5067 5067 5067 5067 5067 5067 5067 5067 5067 5067 5067 5067 5067 5067 5067 5067 5067 5067 5067 5067 5067 5067 5067 5067 5067 5027 5027 5027 5027 5027 5027 5027 5027 5027 5027 5027 5027 5027 5027 5027 5027 5027 5027 5067 5067 5027 5027 5027 4987 4987 4948 4909 4909 4909 4909 4909 4909 4948 4948 4948 4909 4909 4909 4909 4909 4871 4871 4871 4909 4909 4948 4948 4987 4987 4987 5027 5027 5027 5027 4987 4987 4987 4987 4987 4987 4987 4987 4948 4871 4871 4909 4987 4987 5027 5027 5027 5027 4987 4987 4987 4948 4948 4948 4909 4871 4871 4871 4797 4797 0 0 0 0 0 5109 5109 5109 5109 5109 5109 5109 5109 5151 5151 5151 5151 5151 5151 5151 5151 5109 5109 5109 5109 5109 5067 5027 4987 4987 4987 5027 5067 5109 5109 5109 5109 5109 5109 5151 5151 5151 5151 5151 5151 5151 5151 5193 5193 5193 5193 5193 5151 5151 5151 5151 5151 5151 5151 5151 5151 5151 5151 5151 5151 5151 5151 5151 5151 5193 5193 5193 5193 5193 5193 5193 5193 5193 5236 5236 5236 5236 5236 5236 5236 5236 5236 5193 5193 5151 5151 5193 5236 5236 5236 5236 5236 5236 5280 5280 5280 5280 5280 5280 5280 5280 5280 5280 5280 5280 5325 5371 5371 5371 5371 5325 5325 5325 5325 5325 5280 5280 5280 5280 5280 5280 5280 5280 5280 5280 5280 5280 5280 5280 5280 5280 5280 5280 5280
    0 0 0 0 0 0 0 0 0 0 0 0 0 0 0 0 0 0 0 0 0 0 0 0 0 0 0 0 0 0 0 0 0 5713 5713 5713 5713 5713 5713 5661 5661 5661 5661 5661 5661 5661 5661 5661 5661 5661 5661 5661 5661 5661 5661 5661 5661 5661 5661 5661 5661 5610 5610 5610 5610 5610 5610 5610 5610 5661 5661 5661 5661 5713 5713 5713 5765 5765 5765 5765 5765 5765 5765 5765 5765 5765 5765 5765 5765 5818 5818 5818 5818 5765 5765 5765 5713 5765 5765 5765 5765 5818 5818 5818 5765 5765 5765 5765 5765 5765 5765 5765 5765 5765 5765 5765 5765 5765 5765 5765 5765 5765 5713 5713 5713 5713 5713 5713 5713 5713 5713 5713 5713 5713 5713 5713 5713 5713 5713 5713 5713 5713 5765 5765 5765 5765 5765 5765 5765 5765 5713 5713 5713 5713 5713 5713 5765 5765 5765 5765 5661 5610 5561 5464 5371 5371 5371 5371 5325 5325 5325 5325 5417 5417 5464 5464 5512 5512 5464 5417 5417 5371 5325 5325 5325 5325 5280 5280 5280 5371 5325 5280 5280 5236 5193 5151 5109 5109 5109 5067 5067 5067 5067 5067 5067 5067 5067 5067 5067 5067 5067 5067 5067 5067 5067 5067 5067 5067 5067 5067 5067 5067 5067 5067 5067 5067 5067 5067 5109 5109 5109 5109 5109 5109 5109 5109 5109 5109 5109 5109 5109 5109 5109 5109 5109 5109 5109 5109 5109 5109 5109 5109 5109 5109 5109 5109 5109 5109 5109 5109 5109 5109 5109 5109 5109 5109 5109 5109 5109 5109 5067 5067 5067 5067 5067 5067 5067 5067 5109 5109 5109 5109 5109 5067 5067 5067 5067 5067 5067 5067 5067 5027 5027 5027 5027 5027 5027 5027 5027 5027 5027 5027 5027 5027 5027 5027 5067 5067 5067 5067 5027 5027 5027 4987 4987 4948 4909 4909 4909 4909 4909 4948 4948 4948 4909 4909 4909 4871 4871 4871 4871 4871 4909 4909 4909 4948 4948 4948 4987 4987 4987 4987 5027 5027 5027 4987 4987 4987 4987 4948 4948 4909 4871 4871 4909 4948 4987 4987 4987 5027 5027 4987 4987 4948 4948 4909 4871 4871 4834 4797 4797 4797 4797 0 0 0 0 0 5027 5027 5027 5067 5067 5067 5109 5109 5151 5151 5151 5151 5151 5109 5067 5067 5067 5067 5109 5109 5109 5067 5067 5027 4987 4987 5067 5109 5109 5109 5109 5109 5109 5109 5151 5151 5151 5151 5151 5151 5151 5151 5151 5151 5193 5193 5151 5151 5151 5151 5151 5151 5151 5151 5151 5151 5151 5151 5151 5151 5151 5151 5151 5151 5193 5193 5193 5193 5193 5193 5193 5193 5193 5193 5236 5236 5236 5236 5236 5236 5236 5193 5193 5151 5151 5151 5193 5193 5236 5236 5236 5236 5236 5236 5280 5280 5280 5325 5325 5325 5280 5280 5280 5280 5280 5280 5325 5325 5325 5325 5325 5325 5325 5325 5280 5280 5236 5236 5236 5280 5280 5280 5280 5325 5325 5280 5280 5280 5280 5280 5280 5236 5280 5280
    0 0 0 0 0 0 0 0 0 0 0 0 0 0 0 0 0 0 0 0 0 0 0 0 0 0 0 0 0 0 0 0 0 5713 5713 5713 5713 5713 5713 5661 5661 5661 5661 5661 5661 5661 5661 5661 5661 5661 5661 5661 5661 5661 5661 5661 5661 5661 5661 5661 5661 5610 5610 5610 5610 5610 5610 5610 5610 5610 5661 5661 5661 5713 5713 5765 5765 5765 5765 5765 5765 5765 5765 5765 5765 5765 5765 5765 5818 5818 5818 5818 5818 5765 5765 5765 5765 5765 5765 5765 5818 5818 5818 5818 5818 5818 5765 5765 5765 5765 5765 5765 5765 5765 5765 5765 5765 5765 5765 5765 5765 5713 5713 5713 5713 5713 5713 5713 5713 5713 5713 5713 5713 5713 5713 5713 5713 5713 5713 5713 5713 5713 5713 5765 5765 5765 5765 5765 5765 5765 5765 5713 5713 5713 5765 5765 5765 5765 5765 5765 5713 5661 5610 5512 5417 5371 5371 5371 5325 5325 5325 5325 5512 5561 5610 5610 5610 5610 5610 5561 5512 5417 5371 5325 5325 5325 5280 5280 5325 5417 5371 5325 5280 5280 5236 5193 5151 5109 5109 5067 5067 5067 5067 5067 5067 5067 5067 5067 5067 5067 5067 5067 5067 5067 5067 5067 5067 5067 5067 5067 5067 5067 5067 5067 5067 5067 5067 5067 5109 5109 5109 5109 5109 5109 5109 5109 5109 5109 5109 5109 5109 5109 5109 5109 5109 5109 5109 5109 5109 5109 5109 5109 5109 5109 5109 5109 5109 5109 5109 5109 5109 5109 5109 5109 5109 5109 5109 5109 5109 5109 5109 5109 5067 5067 5067 5067 5067 5067 5109 5109 5109 5109 5109 5109 5109 5109 5109 5109 5109 5067 5067 5067 5027 5027 5027 5027 5027 5027 5027 5027 5027 5027 5027 5027 5027 5067 5067 5067 5067 5067 5067 5067 5027 5027 5027 4987 4948 4948 4909 4909 4948 4948 4948 4948 4909 4909 4871 4871 4871 4871 4871 4871 4871 4871 4909 4909 4909 4909 4909 4948 4948 4987 5027 5027 5027 4987 4987 4987 4948 4948 4909 4909 4871 4871 4909 4909 4948 4948 4987 4987 4987 4987 4948 4948 4909 4871 4871 4834 4834 4797 4797 4797 4797 0 0 0 0 4725 4909 4948 4948 4987 4987 5027 5067 5109 5151 5151 5151 5151 5151 5067 5027 4987 5027 4987 5067 5109 5109 5109 5067 5027 4987 5027 5067 5109 5109 5109 5109 5109 5109 5109 5109 5151 5151 5151 5151 5151 5151 5151 5151 5151 5151 5151 5151 5151 5151 5151 5151 5109 5109 5109 5109 5109 5151 5151 5151 5151 5151 5151 5151 5151 5151 5193 5193 5193 5193 5193 5193 5151 5151 5193 5193 5236 5236 5236 5236 5193 5193 5193 5193 5151 5151 5151 5151 5193 5193 5193 5236 5236 5236 5236 5236 5280 5280 5280 5280 5280 5280 5280 5236 5236 5236 5236 0 5325 5325 5325 5325 5325 5325 5280 5280 5236 5236 5236 5236 5280 5280 5325 5325 5325 5325 5325 5325 5280 5280 5280 5236 5236 5236 5236
    0 0 0 0 0 0 0 0 0 0 0 0 0 0 0 0 0 0 0 0 0 0 0 0 0 0 0 0 0 0 0 0 0 5713 5713 5713 5713 5713 5713 5661 5661 5661 5661 5661 5661 5661 5661 5661 5661 5661 5661 5661 5661 5661 5661 5661 5661 5661 5661 5661 5661 5610 5610 5610 5610 5610 5610 5610 5610 5610 5661 5661 5661 5713 5765 5765 5765 5765 5765 5765 5765 5818 5818 5818 5818 5818 5818 5818 5818 5818 5818 5818 5765 5765 5765 5765 5765 5765 5765 5765 5818 5818 5818 5818 5818 5818 5818 5818 5818 5818 5818 5818 5818 5765 5765 5765 5765 5765 5765 5765 5765 5713 5713 5713 5713 5713 5713 5713 5713 5713 5713 5713 5713 5713 5713 5713 5713 5713 5713 5713 5713 5713 5713 5765 5765 5765 5765 5765 5765 5765 5765 5765 5765 5765 5765 5765 5765 5765 5765 5765 5765 5713 5713 5661 5561 5561 5512 5464 5417 5325 5464 5610 5765 5765 5765 5765 5765 5765 5713 5713 5661 5561 5464 5371 5325 5325 5280 5280 5371 5417 5371 5325 5325 5280 5236 5193 5151 5109 5109 5067 5067 5067 5067 5067 5067 5067 5067 5067 5067 5067 5067 5067 5067 5067 5067 5067 5067 5067 5067 5067 5067 5067 5109 5109 5109 5109 5109 5109 5109 5109 5109 5109 5109 5109 5109 5109 5109 5109 5109 5109 5109 5109 5109 5109 5109 5109 5109 5109 5109 5109 5109 5109 5109 5109 5109 5109 5109 5109 5109 5109 5109 5109 5151 5109 5109 5109 5109 5109 5109 5109 5109 5109 5109 5067 5067 5067 5067 5067 5109 5109 5109 5109 5109 5109 5109 5109 5109 5109 5109 5109 5109 5067 5067 5027 5027 5027 5027 5027 5027 5027 5027 5027 5027 5027 5027 5067 5067 5067 5067 5067 5067 5067 5067 5067 5027 5027 4987 4948 4948 4948 4948 4948 4948 4948 4948 4909 4871 4871 4871 4871 4871 4871 4871 4871 4871 4871 4871 4871 4909 4909 4948 4987 5067 5067 5067 5027 4987 4948 4948 4909 4909 4909 4871 4871 4909 4909 4909 4948 4948 4948 4948 4948 4909 4909 4871 4834 4834 4834 4834 4797 4797 4797 4797 0 0 0 0 4725 4834 4871 4871 4871 4909 4948 4948 5027 5109 5109 5109 5109 5109 5027 4948 4909 4948 4909 4987 5067 5109 5109 5109 5109 5151 5151 5151 5151 5151 5109 5109 5109 5109 5151 5151 5151 5151 5151 5151 5151 5151 5151 5151 5151 5151 5151 5151 5151 5151 5151 5151 5109 5109 5109 5109 5109 5109 5109 5109 5109 5151 5151 5151 5151 5151 5193 5193 5193 5193 5193 5151 5151 5151 5151 5151 5193 5193 5193 5193 5193 5193 5193 5193 5151 5151 5151 5151 5151 5151 5151 5193 5193 5236 5236 5236 5280 5280 5280 5280 5236 5236 5236 5236 5236 5236 5325 5561 5417 5417 5417 5371 5371 5371 5325 5280 5236 5236 5236 5236 5280 5325 5371 5371 5371 5325 5325 5325 5325 5280 5236 5193 5151 5151 5151
    0 0 0 0 0 0 0 0 0 0 0 0 0 0 0 0 0 0 0 0 0 0 0 0 0 0 0 0 0 0 0 0 0 5713 5713 5713 5713 5713 5661 5661 5661 5661 5661 5661 5661 5661 5661 5661 5661 5661 5661 5661 5661 5661 5661 5661 5661 5610 5610 5610 5610 5610 5610 5610 5610 5610 5610 5610 5610 5610 5661 5661 5661 5713 5765 5765 5818 5818 5818 5818 5818 5818 5818 5818 5818 5818 5818 5818 5818 5818 5818 5765 5765 5765 5765 5765 5765 5765 5765 5818 5818 5818 5818 5818 5818 5818 5873 5873 5873 5818 5818 5818 5818 5765 5765 5765 5765 5765 5765 5765 5765 5713 5713 5713 5713 5713 5713 5713 5713 5713 5713 5713 5713 5713 5713 5713 5713 5713 5713 5713 5713 5713 5713 5713 5765 5765 5765 5765 5765 5765 5765 5765 5765 5765 5765 5765 5765 5765 5765 5765 5765 5765 5765 5765 5765 5765 5713 5713 5661 5561 5610 5765 5765 5765 5765 5765 5765 5765 5765 5765 5765 5765 5713 5610 5464 5325 5280 5280 5417 5417 5371 5325 5325 5280 5280 5193 5151 5109 5067 5067 5067 5067 5067 5067 5067 5067 5067 5067 5067 5067 5067 5067 5067 5067 5067 5067 5067 5067 5067 5067 5067 5109 5109 5109 5109 5109 5109 5109 5109 5109 5109 5109 5109 5109 5109 5109 5109 5109 5109 5109 5109 5109 5109 5109 5109 5109 5109 5109 5109 5109 5109 5109 5109 5109 5109 5151 5151 5151 5151 5151 5151 5151 5151 5151 5151 5109 5109 5109 5109 5109 5109 5109 5109 5067 5067 5067 5067 5067 5109 5109 5109 5109 5109 5109 5109 5109 5109 5109 5109 5109 5109 5109 5067 5027 5027 5027 5027 5027 5027 5027 5027 5027 5027 5027 5027 5067 5067 5067 5067 5067 5067 5067 5067 5067 5067 5027 5027 4987 4948 4948 4948 4948 4948 4948 4948 4909 4871 4871 4871 4834 4834 4871 4871 4871 4871 4871 4871 4871 4909 4909 4948 5027 5067 5109 5109 5067 5027 4948 4909 4909 4909 4909 4871 4909 4909 4909 4909 4909 4948 4948 4948 4909 4909 4871 4834 4834 4834 4834 4834 4797 4797 4797 4797 0 0 0 0 4725 4797 4797 4797 4797 4834 4834 4871 4909 5109 5109 5109 5109 5109 4987 4871 4871 4871 4871 4909 4987 5109 5109 5109 5109 5151 5151 5151 5151 5151 5151 5109 5109 5109 5151 5151 5151 5151 5151 5151 5151 5151 5151 5151 5151 5151 5151 5151 5151 5151 5151 5151 5151 5151 5151 5151 5109 5109 5109 5109 5109 5109 5109 5151 5151 5151 5193 5193 5193 5193 5193 5151 5151 5109 5109 5151 5151 5193 5193 5193 5193 5193 5193 5193 5193 5151 5151 5151 5109 5109 5151 5151 5193 5193 5236 5236 5236 5236 5236 5193 5193 5193 5236 5236 5280 5325 5417 5561 5512 5464 5464 5464 5417 5417 5371 5325 5236 5193 5193 5280 5325 5371 5371 5371 5371 5371 5371 5325 5325 5325 5193 5109 5067 5067 5067
    0 0 0 0 0 0 0 0 0 0 0 0 0 0 0 0 0 0 0 0 0 0 0 0 0 0 0 0 0 0 0 0 0 5713 5713 5713 5661 5661 5661 5661 5661 5661 5661 5661 5661 5661 5661 5661 5661 5661 5661 5661 5661 5661 5610 5610 5610 5610 5610 5610 5610 5610 5610 5610 5610 5610 5610 5610 5610 5661 5661 5661 5661 5765 5765 5818 5818 5818 5818 5818 5818 5818 5818 5818 5818 5818 5818 5818 5818 5818 5818 5765 5765 5765 5765 5765 5765 5765 5818 5818 5818 5818 5818 5818 5818 5873 5873 5873 5873 5818 5818 5818 5818 5765 5765 5765 5765 5765 5765 5765 5765 5713 5713 5713 5713 5713 5713 5765 5713 5713 5713 5713 5713 5713 5713 5713 5713 5713 5713 5713 5713 5713 5713 5713 5713 5765 5765 5765 5765 5765 5765 5765 5765 5765 5765 5765 5765 5765 5765 5765 5765 5765 5713 5713 5765 5765 5765 5818 5818 5818 5818 5818 5765 5765 5765 5765 5765 5765 5765 5765 5765 5765 5818 5818 5818 5818 0 0 5417 5417 5371 5371 5325 5325 5280 5193 5151 5067 5067 5067 5067 5067 5067 5067 5067 5067 5067 5067 5067 5067 5067 5067 5067 5067 5067 5067 5067 5067 5067 5067 5067 5109 5109 5109 5109 5109 5109 5109 5109 5109 5109 5109 5109 5109 5109 5109 5109 5109 5109 5109 5109 5109 5109 5109 5109 5109 5109 5109 5109 5109 5109 5109 5109 5109 5151 5151 5151 5151 5151 5151 5151 5151 5151 5151 5151 5151 5151 5151 5151 5109 5109 5109 5109 5067 5067 5067 5109 5067 5109 5109 5109 5109 5109 5109 5109 5109 5109 5109 5109 5109 5109 5109 5067 5067 5027 5027 5027 5027 5027 5027 5027 5027 5027 5027 5027 5067 5067 5067 5067 5067 5067 5067 5067 5067 5067 5067 5027 4987 4987 4948 4948 4948 4948 4948 4948 4909 4909 4871 4871 4871 4871 4871 4871 4871 4871 4834 4834 4871 4909 4948 4987 5067 5109 5109 5109 5109 4987 4909 4909 4909 4909 4909 4909 4909 4909 4909 4909 4909 4909 4909 4909 4909 4871 4871 4834 4834 4834 4797 4797 4797 4797 4797 4797 0 0 0 0 4725 4725 4725 4725 4760 4760 4760 4797 4834 4909 4909 4909 4909 4987 4871 4797 4797 4834 4797 4834 4871 5109 0 0 0 5151 5151 5151 5151 5151 5151 5109 5109 5109 5151 5151 5151 5151 5151 5151 5151 5151 5151 5151 5151 5151 5151 5151 5151 5151 5193 5193 5193 5151 5151 5151 5151 5151 5151 5151 5151 5151 5151 5151 5151 5151 5193 5193 5193 5193 5151 5151 5109 5109 5109 5151 5151 5193 5193 5193 5236 5236 5236 5236 5193 5193 5151 5151 5109 5109 5109 5109 5151 5151 5236 5193 5193 5193 5193 5193 5193 5193 5236 5280 5325 5371 5464 5561 5512 5512 5464 5464 5464 5417 5417 5371 5325 5280 5280 5325 5371 5371 5417 5417 5417 5417 5371 5371 5371 5371 5109 5067 5027 5027 5027
    0 0 0 0 0 0 0 0 0 0 0 0 0 0 0 0 0 0 0 0 0 0 0 0 0 0 0 0 0 0 0 0 0 5713 5713 5661 5661 5661 5661 5661 5661 5661 5661 5661 5661 5661 5661 5661 5661 5661 5661 5661 5661 5610 5610 5610 5610 5610 5610 5610 5610 5610 5661 5661 5661 5661 5610 5610 5661 5661 5661 5661 5661 5765 5818 5818 5818 5818 5818 5873 5873 5873 5873 5873 5873 5873 5818 5818 5818 5818 5765 5765 5765 5765 5765 5765 5765 5765 5818 5818 5818 5818 5818 5818 5818 5818 5818 5818 5818 5818 5818 5818 5818 5765 5765 5765 5765 5765 5765 5765 5765 5765 5713 5713 5713 5713 5765 5765 5765 5713 5713 5713 5713 5713 5661 5713 5713 5713 5713 5713 5713 5713 5713 5713 5713 5765 5765 5765 5765 5765 5765 5765 5765 5765 5765 5818 5818 5818 5765 5765 5765 5765 5765 5765 5765 5818 5818 5818 5818 5818 5818 5818 5818 5818 5818 5818 5818 5818 5765 5765 5765 5818 5818 5818 5818 5818 0 0 5417 5417 5371 5371 5325 5325 5325 5193 5109 5067 5067 5067 5067 5067 5067 5067 5067 5067 5067 5067 5067 5067 5067 5067 5067 5067 5067 5067 5067 5067 5067 5067 5067 5109 5109 5109 5109 5109 5109 5109 5109 5109 5109 5109 5109 5109 5109 5109 5109 5109 5109 5109 5109 5109 5109 5109 5109 5109 5109 5109 5109 5109 5109 5109 5109 5109 5151 5151 5151 5151 5151 5151 5151 5151 5151 5151 5151 5151 5151 5151 5151 5151 5109 5109 5109 5109 5109 5109 5109 5109 5067 5109 5109 5109 5109 5109 5109 5109 5109 5109 5109 5109 5109 5109 5067 5027 5027 4987 4987 4987 5027 5027 5027 5027 4987 4987 4909 4948 5027 5067 5067 5067 5067 5067 5067 5067 5067 5067 5027 5027 4987 4987 4948 4948 4948 4948 4948 4948 4909 4909 4909 4871 4871 4871 4871 4871 4871 4871 4834 4871 4909 4948 5027 5067 5109 5109 5109 5067 4948 4909 4909 4871 4909 4909 4909 4909 4909 4909 4909 4909 4909 4909 4909 4909 4871 4871 4871 4834 4834 4834 4797 4797 4797 0 0 0 0 0 0 4725 4725 4725 4725 4725 4725 4725 4797 4834 4909 4909 4909 4909 4909 4871 4797 4760 4725 4725 4725 4725 0 0 0 0 5151 5151 5151 5151 5151 5151 5109 5109 5109 5151 5151 5193 5193 5193 5193 5193 5193 5193 5193 5193 5193 5151 5151 5193 5193 5193 5236 5236 5193 5193 5151 5151 5193 5193 5236 5236 5193 5193 5151 5151 5193 5193 5193 5193 5193 5151 5109 5109 5109 5067 5151 5193 5193 5236 5236 5236 5280 5280 5236 5236 5193 5193 5151 5109 5109 5109 5109 5109 5151 5193 5193 5193 5151 5151 5151 5151 5193 5280 5325 5371 5464 5512 5561 5512 5512 5464 5464 5417 5417 5417 5417 5371 5325 5325 5371 5371 5417 5417 5417 5417 5417 5417 5417 5417 5417 5109 5067 5027 5027 5027
    0 0 0 0 0 0 0 0 0 0 0 0 0 0 0 0 0 0 0 0 0 0 0 0 0 0 0 0 0 0 0 0 0 5713 5713 5661 5661 5661 5661 5661 5661 5661 5661 5661 5661 5661 5661 5661 5661 5661 5661 5661 5661 5610 5610 5610 5610 5610 5610 5610 5610 5661 5661 5661 5661 5661 5661 5661 5661 5661 5661 5661 5713 5765 5818 5818 5818 5818 5873 5873 5873 5873 5873 5873 5873 5873 5818 5818 5818 5818 5765 5765 5765 5765 5765 5765 5765 5765 5818 5818 5818 5818 5818 5818 5818 5818 5818 5818 5818 5818 5818 5818 5818 5765 5765 5765 5765 5765 5765 5765 5765 5765 5765 5765 5765 5765 5765 5765 5765 5713 5713 5713 5713 5713 5713 5713 5713 5713 5713 5713 5713 5713 5713 5713 5713 5765 5765 5765 5765 5765 5765 5765 5765 5818 5818 5818 5818 5818 5818 5765 5765 5765 5765 5765 5765 5818 5818 5818 5818 5818 5818 5818 5818 5818 5818 5818 5818 5818 5818 5818 5818 5818 5818 5818 5818 5818 0 0 5417 5371 5371 5371 5325 5325 5325 5193 5151 5109 5067 5067 5067 5067 5067 5067 5067 5067 5067 5067 5067 5067 5067 5067 5067 5067 5067 5067 5067 5067 5067 5067 5067 5109 5109 5109 5109 5109 5109 5109 5109 5109 5109 5109 5109 5109 5109 5109 5109 5109 5109 5109 5109 5109 5109 5109 5109 5109 5109 5109 5109 5109 5109 5109 5109 5109 5151 5151 5151 5151 5151 5151 5151 5151 5151 5151 5151 5151 5151 5151 5151 5151 5151 5109 5109 5109 5109 5109 5109 5109 5067 5067 5067 5067 5067 5067 5067 5067 5109 5109 5109 5109 5109 5067 5067 5027 5027 4987 4987 4987 4987 4987 4987 4987 4987 4948 4909 4909 4948 5027 5027 5027 5027 5027 5027 5027 5027 5027 5027 4987 4987 4987 4948 4948 4948 4948 4948 4909 4909 4909 4909 4909 4871 4871 4871 4871 4871 4871 4834 4871 4909 4987 5027 5067 5109 5109 5067 4987 4948 4871 4871 4871 4909 4909 4909 4909 4909 4909 4909 4909 4909 4909 4909 4909 4909 4871 4871 4871 4834 4834 4834 4797 0 0 0 0 0 0 0 4725 4725 4725 4725 4725 4725 4760 4834 4871 4909 4909 4909 4909 4909 4871 4834 4797 4725 4725 4725 4725 0 0 0 0 5151 5151 5151 5151 5151 5151 5109 5109 5109 5151 5193 5193 5193 5193 5193 5193 5193 5193 5193 5193 5193 5193 5193 5193 5236 5236 5236 5236 5236 5193 5193 5236 5280 5280 5280 5280 5236 5193 5151 5151 5193 5193 5193 5193 5193 5151 5109 5109 5109 5067 5193 5236 5236 5236 5280 5280 5280 5280 5280 5280 5236 5193 5193 5151 5109 5109 5109 5109 5151 5193 5193 5193 5109 5109 5151 5151 5236 5325 5417 5464 5512 5561 5512 5512 5464 5464 5417 5417 5417 5417 5417 5417 5417 5417 5417 5417 5417 5417 5417 5417 5417 5417 5417 5417 5417 5193 5067 5067 5067 5067
    0 0 0 0 0 0 0 0 0 0 0 0 0 0 0 0 0 0 0 0 0 0 0 0 0 0 0 0 0 0 0 0 0 5661 5661 5661 5661 5661 5661 5661 5661 5661 5661 5661 5661 5661 5661 5661 5661 5661 5661 5610 5610 5610 5610 5610 5610 5610 5610 5610 5610 5661 5713 5713 5713 5713 5713 5713 5713 5661 5713 5713 5713 5765 5818 5818 5818 5818 5873 5873 5873 5873 5873 5873 5873 5873 5818 5818 5818 5765 5765 5765 5765 5765 5765 5765 5765 5765 5818 5818 5818 5818 5818 5818 5818 5818 5818 5818 5818 5818 5818 5818 5765 5765 5765 5765 5765 5765 5765 5765 5765 5765 5765 5765 5765 5765 5765 5765 5765 5713 5713 5713 5713 5713 5713 5713 5713 5765 5765 5765 5765 5713 5713 5713 5713 5765 5765 5765 5765 5765 5765 5765 5818 5818 5818 5818 5818 5818 5818 5818 5765 5765 5765 5765 5765 5818 5818 5818 5818 5818 5818 5818 5818 5818 5818 5818 5818 5818 5818 5818 5818 5818 5818 5765 5713 5661 5464 5280 5371 5371 5371 5325 5325 5325 5325 5236 5151 5109 5067 5067 5067 5067 5067 5067 5067 5067 5067 5067 5067 5067 5067 5067 5067 5067 5067 5067 5067 5067 5067 5067 5067 5109 5109 5109 5109 5109 5109 5109 5109 5109 5109 5109 5109 5109 5109 5109 5109 5109 5109 5109 5109 5109 5109 5109 5109 5109 5109 5109 5109 5109 5109 5109 5109 5109 5151 5151 5151 5151 5151 5151 5193 5193 5193 5193 5193 5193 5193 5193 5193 5193 5151 5151 5151 5151 5109 5109 5109 5109 5067 5067 5067 5067 5067 5067 5067 5067 5067 5109 5109 5109 5067 5067 5027 5027 5027 4987 4987 4987 4987 4987 4987 4987 4948 4948 4909 4909 4909 4987 4948 4948 4987 4987 4987 4987 4987 4987 4987 4987 4987 4948 4948 4948 4948 4948 4948 4909 4909 4909 4909 4909 4871 4871 4871 4871 4871 4871 4871 4909 4948 4948 5027 5067 5067 5027 5027 4948 4909 4909 4909 4871 4871 4909 4909 4909 4909 4909 4909 4909 4909 4909 4909 4909 4909 4871 4871 4871 4871 4871 4871 0 0 0 0 0 0 0 0 0 4797 4760 4760 4760 4760 4797 4871 4909 4909 4909 4909 4948 4948 4948 4909 4909 4725 4725 4725 4725 0 0 0 0 5193 5193 5193 5193 5193 5193 5236 5236 5236 5236 5236 5236 5236 5236 5236 5193 5236 5236 5236 5236 5236 5236 5236 5236 5280 5280 5280 5280 5280 5280 5325 5371 5371 5371 5371 5325 5280 5236 5193 5193 5193 5193 5236 5280 5280 5236 5236 5193 5067 5067 5236 5280 5280 5280 5280 5280 5280 5280 5280 5280 5280 5236 5236 5193 5151 5109 5067 5067 5027 0 0 0 5109 5109 5151 5193 5280 5417 5464 5512 5512 5561 5512 5512 5464 5464 5417 5417 5417 5417 5417 5417 5417 5417 5417 5417 5417 5417 5417 5417 5417 5417 5417 5417 5417 5371 5280 5193 5151 5151
    0 0 0 0 0 0 0 0 0 0 0 0 0 0 0 0 0 0 0 0 0 0 0 0 0 0 0 0 0 0 0 0 0 5661 5661 5661 5661 5661 5661 5661 5661 5661 5661 5661 5661 5661 5661 5661 5661 5661 5661 5661 5661 5661 5610 5610 5610 5610 5610 5661 5661 5713 5713 5713 5713 5713 5713 5713 5713 5713 5713 5713 5765 5765 5765 5818 5818 5818 5818 5873 5873 5873 5873 5873 5818 5818 5818 5818 5765 5765 5765 5765 5765 5765 5765 5765 5765 5818 5818 5818 5818 5818 5818 5818 5818 5818 5818 5818 5818 5818 5765 5765 5765 5765 5765 5765 5765 5765 5765 5765 5765 5765 5765 5765 5765 5765 5765 5765 5765 5713 5713 5713 5713 5713 5713 5713 5713 5765 5765 5765 5765 5765 5713 5713 5713 5765 5765 5765 5765 5765 5765 5818 5818 5818 5818 5818 5818 5818 5818 5818 5818 5818 5818 5818 5818 5818 5818 5818 5818 5818 5818 5873 5873 5873 5873 5873 5818 5818 5818 5818 5818 5818 5765 5713 5610 5512 5371 5280 5325 5371 5371 5325 5325 5325 5325 5236 5151 5109 5109 5067 5067 5067 5067 5067 5067 5067 5067 5067 5067 5067 5067 5067 5067 5067 5067 5067 5067 5067 5067 5067 5067 5109 5109 5109 5109 5109 5109 5109 5109 5109 5109 5109 5109 5109 5109 5109 5109 5109 5109 5109 5109 5109 5109 5109 5109 5109 5109 5109 5109 5109 5109 5109 5109 5109 5151 5151 5151 5151 5151 5193 5193 5193 5193 5193 5193 5193 5193 5193 5193 5193 5193 5193 5193 5151 5151 5151 5109 5109 5067 5067 5067 5067 5067 5067 5067 5067 5067 5067 5067 5067 5067 5067 5027 5027 5027 5027 5027 5027 4987 4987 4987 4987 4948 4948 4909 4909 4909 4909 4909 4909 4948 4948 4948 4948 4948 4987 4987 4987 4948 4948 4948 4948 4948 4948 4948 4909 4909 4909 4909 4909 4871 4871 4871 4909 4871 4871 4871 4909 4909 4948 4987 4987 5027 4987 4987 4948 4909 4909 4909 4909 4909 4909 4909 4909 4909 4909 4909 4909 4909 4909 4909 4909 4909 4909 4909 4909 4871 4871 4871 0 0 0 0 0 0 0 0 0 4834 4834 4871 4871 4871 4909 4948 4909 4948 4948 4948 4987 4987 5027 5067 5151 5236 5236 5236 5236 5236 5236 5236 5236 5236 5236 5236 5236 5236 5236 5236 5236 5236 5236 5236 5236 5236 5236 5236 5236 5236 5236 5236 5236 5236 5236 5236 5280 5280 5280 5280 5325 5371 5417 5464 5464 5464 5464 5464 5417 5417 5371 5325 5325 5325 5325 5325 5371 5371 5371 5371 5371 0 0 5325 5325 5325 5325 5325 5280 5280 5280 5280 5280 5280 5280 5280 5236 5193 5151 5067 5067 5027 0 0 0 0 0 5236 5236 5417 5512 5512 5561 5561 5561 5512 5464 5464 5417 5417 5417 5417 5417 5417 5417 5417 5417 5417 5417 5417 5417 5417 5417 5417 5417 5417 5417 5417 5417 5417 5371 5371 5325
    0 0 0 0 0 0 0 0 0 0 0 0 0 0 0 0 0 0 0 0 0 0 0 0 0 0 0 0 0 0 0 0 0 5713 5713 5661 5661 5661 5661 5661 5661 5661 5661 5661 5661 5661 5661 5661 5661 5661 5661 5661 5661 5661 5661 5661 5661 5661 5661 5661 5661 5713 5713 5713 5713 5713 5713 5713 5713 5713 5713 5713 5765 5765 5765 5765 5765 5818 5818 5818 5818 5818 5818 5818 5818 5765 5765 5765 5765 5765 5765 5765 5765 5765 5765 5765 5765 5765 5765 5765 5818 5818 5765 5765 5765 5765 5765 5765 5765 5765 5765 5765 5765 5765 5765 5765 5765 5765 5765 5765 5765 5765 5765 5765 5765 5765 5765 5765 5765 5713 5713 5713 5713 5713 5713 5713 5765 5765 5765 5765 5765 5765 5765 5713 5765 5765 5765 5713 5713 5713 5765 5765 5818 5818 5873 5873 5873 5873 5873 5873 5818 5818 5818 5818 5818 5818 5818 5818 5818 5818 5873 5873 5873 5873 5873 5873 5873 5818 5818 5818 5765 5713 5661 5561 5464 5417 5325 5280 5280 5325 5325 5325 5325 5325 5280 5236 5193 5109 5109 5109 5109 5067 5067 5067 5067 5067 5067 5067 5067 5067 5067 5067 5067 5067 5067 5067 5067 5067 5067 5067 5067 5109 5109 5109 5109 5109 5109 5109 5109 5109 5109 5109 5109 5109 5109 5109 5109 5109 5109 5109 5109 5109 5109 5109 5109 5109 5109 5109 5109 5109 5109 5109 5109 5109 5151 5151 5151 5151 5151 5151 5193 5193 5193 5193 5193 5193 5193 5193 5193 5193 5193 5193 5193 5193 5193 5151 5151 5109 5109 5067 5067 5067 5067 5067 5067 5067 5067 5067 5067 5067 5067 5027 5027 5027 5027 5027 5027 5027 5027 5027 4987 4987 4948 4948 4909 4909 4909 4909 4909 4909 4909 4909 4909 4948 4948 4948 4948 4948 4948 4948 4948 4948 4948 4948 4948 4909 4909 4909 4909 4909 4871 4871 4871 4909 4909 4909 4909 4909 4909 4909 4948 4948 4948 4948 4948 4909 4909 4909 4909 4909 4909 4909 4909 4909 4909 4909 4909 4909 4948 4948 4948 4948 4948 4948 4948 4909 4871 4871 4871 0 0 0 0 0 0 0 0 0 4834 4871 4948 4948 4948 4987 4987 4909 4948 4948 4987 5027 5027 5067 5151 5193 5236 5236 5236 5236 5236 5236 5236 5236 5236 5236 5236 5236 5236 5236 5236 5236 5236 5236 5236 5236 5236 5236 5236 5236 5236 5236 5236 5280 5280 5280 5280 5280 5280 5280 5325 5371 5417 5464 5464 5464 5464 5464 5464 5464 5464 5464 5464 5464 5464 5417 5417 5417 5417 5371 5371 5371 0 0 5325 5325 5325 5325 5325 5325 5325 5325 5325 5325 5325 5325 5371 5325 5371 5371 5417 5464 5561 5512 5512 0 0 0 0 0 5561 5561 5561 5561 5561 5512 5512 5464 5417 5417 5417 5417 5417 5417 5417 5417 5417 5417 5417 5371 5371 5417 5417 5417 5417 5417 5417 5417 5417 5417 5417 5371 5371 5325
    0 0 0 0 0 0 0 0 0 0 0 0 0 0 0 0 0 0 0 0 0 0 0 0 0 0 0 0 0 0 0 0 0 5713 5713 5713 5661 5661 5661 5661 5661 5661 5661 5661 5661 5661 5661 5661 5661 5661 5661 5661 5661 5661 5661 5661 5661 5661 5661 5661 5713 5713 5713 5713 5713 5713 5713 5713 5713 5713 5713 5713 5765 5765 5765 5765 5765 5765 5765 5765 5765 5765 5765 5765 5765 5713 5765 5765 5765 5765 5765 5765 5765 5765 5765 5765 5765 5765 5765 5765 5765 5765 5765 5765 5765 5765 5765 5765 5765 5765 5765 5765 5765 5765 5765 5765 5765 5765 5765 5765 5765 5765 5765 5765 5765 5765 5765 5765 5765 5713 5713 5713 5713 5713 5713 5713 5765 5765 5765 5713 5713 5713 5661 5661 5661 5765 5765 5713 5661 5713 5713 5765 5765 5818 5873 5873 5873 5873 5873 5873 5873 5873 5873 5818 5818 5818 5818 5818 5818 5818 5873 5873 5873 5873 5873 5873 5873 5873 5873 5818 5713 5610 5512 5417 5371 5371 5325 5280 5280 5325 5325 5325 5325 5280 5280 5236 5193 5151 5109 5109 5109 5109 5067 5067 5067 5067 5067 5067 5067 5067 5067 5067 5067 5067 5067 5067 5067 5067 5067 5067 5067 5109 5109 5109 5109 5109 5109 5109 5109 5109 5109 5109 5109 5109 5109 5109 5109 5109 5109 5109 5109 5109 5109 5109 5109 5109 5109 5109 5109 5109 5109 5109 5109 5109 5151 5151 5151 5151 5151 5151 5193 5193 5193 5193 5193 5193 5193 5193 5193 5193 5236 5236 5236 5193 5193 5193 5151 5151 5109 5109 5067 5067 5067 5067 5067 5067 5067 5067 5067 5067 5067 5067 5027 5027 5067 5067 5067 5067 5067 5027 5027 4987 4948 4948 4909 4909 4909 4909 4909 4909 4909 4909 4909 4909 4948 4948 4948 4948 4948 4948 4948 4948 4948 4948 4948 4948 4909 4909 4909 4909 4871 4871 4909 4909 4909 4909 4909 4909 4909 4909 4909 4909 4909 4909 4909 4909 4909 4909 4909 4909 4909 4909 4909 4909 4909 4909 4909 4948 4948 4987 4987 5027 4987 4987 4987 4948 4871 4871 4871 0 0 0 0 0 0 0 0 0 4834 4909 4987 5027 5027 5067 5109 5067 5067 5027 5067 5067 5109 5151 5193 5236 5236 5236 5236 5236 5236 5236 5236 5236 5236 5236 5236 5236 5236 5236 5236 5236 5236 5236 5236 5236 5236 5236 5236 5236 5236 5236 5236 5280 5280 5280 5280 5280 5325 5417 5464 5464 5464 5512 5512 5464 5464 5464 5464 5464 5464 5512 5512 5512 5464 5464 5464 5464 5417 5371 5371 5371 0 0 5325 5325 5325 5325 5325 5325 5325 5325 5371 5371 5371 5417 5464 5464 5512 5561 5561 5561 5561 5512 5512 0 0 0 0 0 5561 5561 5561 5561 5512 5512 5464 5464 5417 5417 5417 5417 5417 5417 5417 5417 5417 5417 5417 5417 5371 5417 5417 5417 5417 5417 5417 5417 5417 5417 5417 5371 5371 5325
    0 0 0 0 0 0 0 0 0 0 0 0 0 0 0 0 0 0 0 0 0 0 0 0 0 0 0 0 0 0 0 0 0 5713 5713 5713 5713 5661 5661 5661 5661 5661 5661 5661 5661 5661 5661 5661 5661 5661 5661 5661 5661 5661 5661 5713 5713 5713 5713 5713 5713 5713 5713 5713 5713 5713 5713 5713 5713 5713 5713 5713 5713 5765 5765 5765 5765 5765 5765 5713 5713 5713 5713 5661 5661 5661 5713 5713 5713 5713 5765 5765 5765 5765 5765 5765 5765 5765 5765 5765 5765 5765 5765 5765 5765 5765 5765 5765 5765 5765 5713 5713 5713 5713 5713 5713 5713 5713 5713 5713 5713 5765 5765 5765 5765 5765 5765 5765 5765 5713 5713 5713 5713 5713 5713 5713 5765 5765 5713 5610 5561 5512 5464 5417 5371 5067 5417 5713 5661 5661 5713 5713 5765 5818 5873 5873 5873 5873 5873 5873 5873 5873 5873 5873 5818 5818 5818 5280 5280 5280 5561 5661 5765 5818 5873 5873 5873 5873 5873 5765 5561 5464 5371 5325 5280 5280 5325 5280 5280 5325 5325 5325 5280 5280 5236 5236 5193 5151 5151 5151 5151 5109 5109 5109 5109 5109 5109 5067 5067 5067 5067 5067 5067 5067 5067 5067 5109 5109 5109 5109 5109 5109 5109 5109 5109 5109 5109 5109 5109 5109 5109 5109 5109 5109 5109 5109 5109 5109 5109 5109 5109 5109 5109 5109 5109 5109 5109 5109 5109 5109 5109 5109 5109 5109 5109 5151 5151 5151 5151 5151 5193 5193 5193 5193 5193 5193 5193 5193 5193 5193 5236 5236 5236 5236 5193 5193 5151 5151 5109 5109 5109 5109 5109 5109 5067 5067 5067 5109 5109 5109 5067 5067 5067 5067 5067 5109 5109 5109 5109 5067 5027 4987 4948 4948 4909 4909 4909 4871 4909 4909 4909 4909 4909 4909 4909 4909 4948 4948 4948 4948 4948 4948 4948 4948 4948 4948 4909 4909 4909 4909 4871 4909 4909 4909 4909 4909 4909 4909 4909 4909 4909 4909 4909 4909 4909 4909 4909 4909 4909 4909 4909 4909 4909 4909 4909 4909 4948 4987 5027 5027 5067 5067 5067 5027 5027 4987 4871 4871 0 0 0 0 0 0 0 0 0 0 4834 4948 5027 5027 5067 5109 5151 5151 5151 5151 5151 5151 5193 5193 5236 5236 5236 5236 5236 5236 5236 5236 5236 5236 5236 5236 5236 5236 5236 5236 5236 5236 5236 5236 5236 5236 5236 5236 5236 5236 5236 5236 5280 5280 5280 5280 5280 5325 5371 5512 5512 5512 5512 5512 5512 5464 5464 5464 5464 5512 5512 5512 5512 5512 5512 5512 5464 5464 5464 5417 5371 5371 0 5610 5464 5417 5371 5371 5371 5371 5371 5371 5417 5417 5464 5464 5512 5512 5512 5561 5561 5561 5561 5561 5561 0 0 0 0 0 5561 5561 5561 5561 5512 5512 5464 5464 5417 5417 5417 5417 5417 5417 5417 5417 5417 5371 5371 5371 5417 5417 5417 5417 5417 5417 5417 5417 5417 5417 5417 5371 5371 5325
    0 0 0 0 0 0 0 0 0 0 0 0 0 0 0 0 0 0 0 0 0 0 0 0 0 0 0 0 0 0 0 0 0 5713 5713 5713 5661 5661 5661 5661 5661 5661 5661 5661 5661 5661 5661 5661 5661 5661 5661 5661 5661 5661 5713 5713 5713 5713 5713 5713 5713 5713 5713 5713 5713 5713 5713 5713 5713 5713 5713 5713 5713 5713 5713 5713 5713 5713 5661 5661 5661 5661 5610 5610 5610 5661 5661 5713 5713 5713 5765 5765 5765 5765 5765 5765 5765 5765 5765 5765 5765 5765 5765 5765 5765 5713 5713 5713 5713 5713 5713 5713 5713 5713 5713 5713 5713 5713 5713 5713 5713 5765 5765 5765 5765 5765 5765 5765 5765 5713 5713 5713 5713 5713 5661 5713 5765 5610 5512 5464 5371 5325 5280 5236 5236 5280 5512 5661 5713 5661 5661 5661 5713 5818 5873 5873 5873 5873 5873 5873 5818 5765 5765 5713 5713 5713 5818 5236 5236 5193 5325 5417 5512 5610 5713 5818 5873 5873 5873 5713 5561 5464 5371 5280 5280 5280 5236 5236 5236 5280 5325 5280 5280 5236 5236 5193 5193 5151 5151 5151 5151 5151 5151 5109 5109 5109 5109 5067 5067 5067 5067 5067 5067 5067 5067 5109 5109 5109 5109 5109 5109 5109 5109 5109 5109 5109 5109 5109 5109 5109 5109 5109 5109 5109 5109 5109 5109 5109 5109 5109 5109 5109 5109 5109 5109 5109 5109 5109 5109 5109 5109 5109 5109 5109 5109 5109 5151 5151 5151 5151 5151 5193 5193 5193 5193 5193 5193 5193 5193 5193 5236 5236 5236 5236 5193 5193 5193 5151 5151 5109 5109 5109 5109 5109 5109 5109 5109 5109 5109 5109 5109 5109 5109 5109 5109 5109 5109 5109 5109 5109 5067 4987 4948 4909 4909 4909 4909 4909 4909 4909 4909 4909 4909 4909 4909 4909 4909 4948 4948 4948 4948 4948 4948 4948 4948 4948 4909 4909 4909 4909 4871 4909 4909 4909 4909 4909 4909 4909 4909 4909 4909 4909 4909 4909 4909 4909 4909 4909 4909 4909 4909 4909 4909 4909 4909 4987 5027 5067 5067 5109 5109 5109 5109 5109 5109 5109 5067 0 0 0 0 0 0 0 0 0 0 0 4834 5027 5067 5109 5109 5151 5193 5193 5236 5193 5236 5236 5236 5236 5236 5236 5236 5236 5236 5236 5236 5236 5236 5236 5236 5236 5236 5236 5236 5236 5236 5236 5280 5280 5280 5236 5236 5236 5236 5236 5236 5236 5280 5280 5280 5280 5325 5371 5417 5512 5512 5512 5512 5512 5512 5512 5512 5512 5512 5512 5512 5512 5512 5512 5512 5512 5512 5512 5512 5464 5464 5512 5610 5610 5561 5512 5512 5464 5417 5417 5417 5417 5464 5464 5512 5512 5512 5561 5561 5561 5561 5561 5561 5561 5561 5561 0 0 0 0 5561 5561 5561 5512 5512 5464 5464 5417 5417 5417 5417 5417 5417 5417 5417 5417 5371 5371 5371 5417 5417 5417 5417 5417 5371 5371 5371 5371 5371 5371 5371 5371 5325 5325
    0 0 0 0 0 0 0 0 0 0 0 0 0 0 0 0 0 0 0 0 0 0 0 0 0 0 0 0 0 0 0 0 0 5713 5713 5713 5661 5661 5661 5661 5610 5610 5610 5610 5610 5661 5661 5661 5661 5661 5661 5661 5661 5661 5713 5713 5713 5713 5713 5713 5713 5713 5713 5713 5713 5713 5713 5713 5713 5713 5713 5713 5713 5713 5713 5713 5661 5610 5610 5561 5561 5561 5561 5610 5610 5610 5661 5661 5713 5713 5765 5765 5765 5765 5765 5765 5765 5765 5765 5765 5765 5765 5765 5765 5765 5713 5713 5713 5713 5713 5713 5713 5713 5713 5713 5713 5713 5713 5713 5713 5713 5765 5765 5765 5765 5765 5765 5765 5765 5713 5713 5713 5713 5713 5661 5561 5325 5371 5325 5280 5236 5236 5151 5151 5193 5325 5464 5661 5713 5713 5713 5661 5661 5818 5873 5873 5873 5873 5873 5765 5713 5661 5561 5512 5512 5512 5417 5193 5193 5193 5193 5236 5325 5417 5512 5661 5873 5873 5873 5661 5561 5464 5371 5280 5236 5236 5236 5236 5236 5236 5280 5280 5236 5236 5193 5193 5193 5193 5151 5151 5151 5151 5151 5109 5109 5109 5109 5067 5067 5067 5067 5067 5067 5067 5109 5109 5109 5109 5109 5109 5109 5109 5109 5109 5109 5109 5109 5109 5109 5109 5109 5109 5109 5109 5109 5109 5109 5109 5109 5109 5109 5109 5109 5109 5109 5109 5109 5109 5109 5109 5109 5109 5109 5109 5109 5109 5109 5151 5151 5151 5151 5151 5193 5193 5193 5193 5193 5193 5193 5193 5236 5236 5236 5236 5193 5193 5193 5193 5151 5151 5151 5109 5109 5109 5109 5109 5109 5109 5151 5151 5151 5151 5151 5151 5109 5109 5109 5109 5109 5109 5109 5027 4948 4909 4909 4909 4909 4909 4909 4909 4909 4909 4909 4909 4909 4909 4909 4909 4948 4948 4948 4948 4948 4948 4948 4948 4909 4909 4909 4909 4909 4909 4909 4909 4909 4909 4909 4909 4909 4909 4909 4909 4909 4909 4909 4909 4909 4909 4909 4909 4909 4909 4909 0 5151 5109 5151 5151 5151 5151 5151 5151 5109 5109 5109 5067 5067 0 0 0 0 0 0 0 0 0 0 0 0 5151 5151 5151 5151 5193 5193 5236 5236 5236 5236 5236 5236 5236 5236 5236 5236 5236 5236 5236 5236 5236 5236 5236 5236 5236 5236 5236 5236 5236 5236 5280 5280 5280 5280 5280 5236 5236 5236 5236 5236 5236 5280 5280 5280 5280 5325 5417 5464 5512 5512 5512 5512 5512 5512 5512 5512 5512 5512 5512 5512 5512 5512 5512 5512 5512 5512 5512 5512 5512 5512 5512 5610 5610 5610 5610 5561 5561 5512 5512 5512 5512 5512 5512 5561 5561 5561 5561 5561 5561 5561 5561 5561 5561 5561 5561 5512 5512 0 0 0 0 5512 5512 5464 5464 5464 5417 5417 5417 5417 5417 5417 5417 5417 5371 5371 5371 5371 5371 5417 5417 5417 5417 5371 5371 5371 5371 5371 5371 5371 5371 5325 5325
    0 0 0 0 0 0 0 0 0 0 0 0 0 0 0 0 0 0 0 0 0 0 0 0 0 0 0 0 0 0 0 0 0 5661 5661 5661 5661 5661 5610 5610 5561 5561 5561 5561 5561 5610 5610 5610 5610 5610 5610 5610 5610 5661 5661 5661 5661 5661 5661 5661 5661 5661 5661 5661 5661 5661 5713 5713 5713 5713 5713 5713 5713 5713 5713 5713 5661 5561 5512 5512 5464 5512 5561 5610 5610 5610 5610 5661 5713 5713 5713 5765 5765 5765 5765 5765 5765 5765 5765 5765 5765 5765 5765 5765 5765 5713 5713 5713 5713 5713 5713 5713 5713 5713 5713 5713 5713 5713 5713 5713 5713 5765 5765 5765 5765 5818 5765 5765 5765 5713 5713 5713 5713 5713 5661 5512 5371 5325 5280 5193 5193 5193 5151 5109 5193 5325 5464 5661 5765 5765 5765 5713 5512 5873 5873 5873 5873 5873 5765 5661 5561 5464 5417 5371 5371 5417 5512 5193 5151 5151 5151 5109 5193 5236 5371 5610 5873 5873 5873 5713 5610 5512 5417 5280 5236 5236 5236 5193 5193 5193 5236 5236 5236 5193 5193 5193 5193 5193 5193 5193 5151 5151 5151 5109 5109 5109 5109 5067 5067 5067 5067 5109 5109 5109 5109 5109 5109 5109 5109 5109 5109 5109 5109 5109 5109 5109 5109 5109 5109 5109 5109 5109 5109 5109 5109 5109 5109 5109 5109 5109 5109 5109 5109 5109 5109 5109 5109 5109 5109 5109 5109 5109 5109 5109 5109 5109 5109 5151 5151 5151 5151 5151 5193 5193 5193 5193 5193 5193 5193 5193 5236 5236 5236 5236 5236 5193 5193 5193 5151 5151 5151 5109 5109 5109 5109 5109 5109 5109 5151 5151 5151 5151 5151 5151 5109 5109 5109 5109 5109 5109 5109 5027 4909 4909 4909 4909 4909 4909 4909 4909 4909 4909 4909 4909 4909 4909 4909 4909 4909 4909 4948 4948 4948 4987 4948 4948 4909 4909 4909 4909 4909 4909 4909 4909 4909 4909 4909 4909 4871 4871 4871 4909 4909 4909 4909 4909 4909 4909 4909 4909 4909 4909 4948 5067 5151 5151 5151 5151 5151 5151 5151 5109 5109 5067 5067 5067 5027 5027 5027 5027 5027 4987 0 0 0 0 0 0 0 5151 5151 5151 5151 5193 5193 5236 5236 5236 5236 5236 5236 5236 5236 5236 5236 5236 5193 5236 5236 5236 5236 5236 5236 5236 5236 5236 5236 5236 5236 5280 5280 5280 5280 5280 5280 5236 5236 5236 5236 5193 5280 5280 5280 5280 5371 5464 5464 5512 5512 5512 5512 5512 5512 5512 5512 5512 5561 5561 5561 5561 5561 5561 5512 5512 5512 5512 5512 5512 5512 5371 5325 5512 5561 5561 5610 5610 5610 5561 5561 5561 5561 5561 5561 5561 5561 5610 5610 5610 5610 5610 5561 5561 5561 5561 5512 5512 0 0 0 0 5464 5464 5464 5464 5417 5417 5417 5417 5417 5417 5417 5417 5417 5371 5371 5371 5371 5371 5417 5417 5417 5417 5371 5371 5371 5325 5325 5325 5325 5325 5325 5325
    0 0 0 0 0 0 0 0 0 0 0 0 0 0 0 0 0 0 0 0 0 0 0 0 0 0 0 0 0 0 0 0 0 5661 5661 5661 5610 5610 5610 5561 5561 5512 5512 5512 5512 5561 5561 5561 5561 5561 5561 5561 5610 5610 5610 5610 5561 5561 5561 5561 5610 5610 5661 5661 5661 5661 5661 5661 5661 5661 5713 5713 5713 5713 5713 5713 5610 5512 5464 5464 5464 5512 5561 5610 5610 5610 5661 5661 5713 5713 5713 5765 5765 5765 5765 5765 5765 5765 5765 5765 5765 5765 5765 5765 5765 5713 5713 5713 5713 5713 5713 5713 5713 5713 5713 5713 5713 5713 5713 5713 5713 5713 5713 5765 5765 5765 5765 5765 5765 5765 5713 5713 5713 5713 5661 5512 5417 5371 5280 5193 5193 5193 5109 5067 5193 5371 5512 5661 5818 5818 5818 5873 6042 5873 5873 5873 5928 5873 5765 5610 5512 5417 5371 5417 5464 5561 5765 5325 5151 5151 5193 5193 5280 5417 5512 5661 5873 5873 5873 5765 5661 5561 5464 5325 5236 5236 5193 5193 5193 5193 5193 5236 5236 5236 5236 5193 5193 5193 5193 5193 5193 5151 5151 5109 5109 5109 5109 5067 5109 5109 5109 5109 5109 5109 5109 5109 5109 5109 5109 5109 5109 5109 5109 5109 5109 5109 5109 5109 5109 5109 5109 5109 5109 5109 5109 5109 5109 5109 5109 5109 5109 5109 5109 5109 5109 5109 5109 5109 5109 5109 5109 5109 5109 5109 5109 5109 5109 5109 5151 5151 5151 5151 5151 5193 5193 5193 5193 5193 5193 5193 5193 5193 5193 5193 5193 5193 5193 5193 5193 5151 5151 5151 5109 5109 5109 5109 5109 5151 5151 5151 5151 5151 5151 5151 5109 5109 5109 5109 5109 5109 5109 5027 4909 4909 4909 4909 4909 4909 4948 4948 4909 4909 4909 4909 4909 4909 4909 4909 4909 4909 4909 4948 4948 4987 4987 4987 4948 4909 4909 4909 4909 4909 4909 4909 4909 4909 4909 4871 4871 4871 4871 4909 4909 4909 4909 4909 4909 4909 4909 4909 4909 4948 4987 5067 5151 5151 5151 5151 5151 5151 5109 5109 5067 5067 5027 5027 5027 5027 5027 5027 5027 4987 4987 0 0 0 0 0 0 5151 5151 5151 5193 5193 5236 5236 5236 5236 5236 5236 5193 5193 5193 5193 5193 5193 5193 5236 5236 5236 5236 5236 5236 5236 5236 5236 5236 5236 5280 5280 5280 5280 5280 5280 5280 5280 5236 5236 5236 0 0 0 0 0 5464 5464 5464 5464 5512 5512 5512 5512 5512 5512 5561 5561 5561 5561 5561 5561 5561 5561 5561 5561 5512 5512 5512 5512 5464 5280 5280 5371 5417 5464 5512 5561 5561 5561 5561 5561 5561 5561 5561 5561 5561 5561 5610 5610 5610 5610 5561 5561 5561 5561 5512 5512 0 0 0 0 0 5464 5417 5417 5417 5417 5417 5417 5417 5417 5417 5417 5417 5371 5371 5371 5371 5371 5417 5417 5417 5417 5417 5371 5371 5325 5325 5325 5325 5325 5325 5325
    0 0 0 0 0 0 0 0 0 0 0 0 0 0 0 0 0 0 0 0 0 0 0 0 0 0 0 0 0 0 0 0 0 5417 5512 5561 5561 5561 5561 5512 5512 5464 5464 5464 5464 5464 5512 5512 5561 5561 5561 5561 5561 5561 5561 5512 5512 5512 5464 5512 5512 5561 5610 5661 5661 5661 5661 5661 5661 5661 5661 5713 5713 5713 5713 5713 5610 5512 5464 5464 5464 5512 5561 5610 5610 5610 5661 5661 5713 5713 5713 5765 5765 5765 5765 5713 5713 5713 5765 5765 5765 5765 5765 5765 5765 5713 5713 5713 5713 5713 5713 5713 5713 5713 5713 5713 5713 5713 5713 5713 5713 5713 5713 5713 5713 5713 5713 5713 5713 5713 5713 5713 5713 5661 5661 5561 5464 5371 5236 5193 5151 5151 5109 5067 5236 5371 5512 5661 5818 5873 5873 5928 6042 5985 5928 5873 5928 5873 5713 5610 5512 5417 5417 5464 5610 5661 5873 5561 5236 5109 5151 5193 5371 5464 5610 5765 5873 5873 5873 5818 5713 5610 5561 5371 5236 5236 5193 5193 5193 5193 5280 5371 5325 5325 5280 5280 5236 5236 5193 5193 5193 5193 5151 5109 5109 5109 5067 5109 5109 5151 5151 5151 5151 5151 5151 5151 5151 5151 5151 5109 5109 5109 5109 5109 5109 5109 5109 5109 5109 5109 5109 5109 5109 5109 5109 5109 5109 5109 5109 5109 5109 5109 5109 5109 5109 5109 5109 5109 5109 5109 5109 5109 5151 5151 5151 5151 5151 5151 5151 5151 5151 5151 5151 5193 5193 5193 5193 5193 5193 5193 5193 5193 5193 5193 5193 5193 5193 5193 5193 5151 5151 5151 5109 5109 5109 5109 5109 5151 5151 5151 5151 5151 5151 5151 5109 5109 5109 5109 5109 5109 5109 5027 4948 4909 4909 4948 4948 4948 4948 4948 4909 4909 4909 4909 4909 4909 4909 4909 4909 4909 4909 4948 4948 4987 4987 4987 4948 4948 4948 4948 4948 4948 4948 4909 4909 4909 4871 4871 4871 4871 4871 4909 4909 4948 4948 4948 4909 4909 4909 4909 4948 4948 5027 5067 5151 5151 5151 5151 5109 5109 5109 5067 5067 5067 5027 5027 5027 5027 5027 5027 5027 4987 4987 0 0 0 0 0 0 5151 5151 5151 5193 5193 5236 5236 5236 5236 5236 5236 5193 5193 5193 5193 5193 5193 5193 5193 5236 5236 5236 5236 5236 5236 5236 5280 5280 5280 5280 5280 5280 5280 5280 5280 5280 5280 5280 5280 5280 0 0 0 0 0 5464 5464 5464 5464 5512 5512 5512 5512 5561 5561 5561 5561 5561 5561 5561 5561 5561 5561 5561 5512 5512 5512 5512 5512 5464 5280 5236 5325 5371 5371 5417 5512 5512 5512 5561 5561 5561 5561 5561 5561 5561 5561 5610 5610 5610 5610 5561 5561 5561 5561 5512 5512 5464 0 0 0 0 5417 5417 5417 5417 5417 5417 5417 5417 5417 5417 5417 5417 5371 5371 5371 5371 5417 5417 5417 5417 5417 5417 5371 5371 5325 5325 5325 5325 5325 5325 5325
    0 0 0 0 0 0 0 0 0 0 0 0 0 0 0 0 0 0 0 0 0 0 0 0 0 0 0 0 0 0 0 0 0 5417 5417 5512 5512 5512 5512 5512 5464 5464 5464 5417 5464 5464 5464 5464 5512 5512 5512 5512 5512 5512 5512 5512 5512 5512 5464 5464 5512 5561 5561 5610 5661 5661 5661 5661 5661 5713 5713 5713 5713 5713 5713 5713 5610 5561 5464 5464 5464 5561 5610 5610 5661 5661 5661 5713 5713 5713 5713 5713 5713 5713 5713 5713 5713 5713 5713 5765 5765 5765 5765 5765 5765 5765 5765 5765 5765 5765 5713 5713 5713 5713 5713 5713 5713 5713 5713 5713 5713 5713 5713 5713 5713 5713 5713 5713 5713 5713 5713 5713 5661 5661 5661 5561 5512 5417 5280 5193 5151 5151 5109 5067 5236 5371 5561 5713 5873 5873 5928 5985 6042 6042 5985 5873 5928 5873 5713 5610 5610 5561 5561 5661 5713 5765 5873 5661 5280 5109 5151 5236 5464 5610 5713 5818 5873 5873 5873 5818 5818 5765 5661 5561 5325 5236 5193 5193 5193 5193 5325 5464 5417 5417 5371 5325 5280 5236 5193 5193 5193 5193 5151 5151 5109 5109 5067 5109 5151 5151 5193 5193 5193 5151 5151 5151 5151 5151 5151 5151 5151 5109 5109 5109 5109 5109 5109 5109 5109 5109 5109 5109 5109 5109 5109 5109 5109 5109 5109 5109 5109 5109 5109 5109 5109 5109 5109 5109 5109 5109 5151 5151 5151 5151 5151 5151 5151 5151 5151 5151 5151 5151 5151 5193 5193 5193 5193 5193 5193 5193 5193 5193 5193 5193 5193 5193 5193 5193 5193 5193 5151 5151 5151 5109 5109 5109 5151 5151 5151 5151 5151 5151 5151 5151 5109 5109 5109 5109 5109 5109 5067 5027 4987 4948 4948 4987 4987 4987 4948 4948 4948 4948 4909 4909 4909 4909 4909 4909 4909 4909 4909 4948 4948 4987 4987 5027 5027 5027 5027 5027 4987 4987 4948 4948 4909 4909 4871 4871 4871 4834 4834 4871 4909 4948 4948 4948 4948 4909 4909 4909 4948 4987 5027 5109 5151 5151 5109 5109 5109 5109 5109 5067 5067 5027 5027 5027 5027 5027 5027 5027 5027 5027 5027 5027 0 0 0 0 0 5151 5151 5193 5236 5236 5236 5236 5236 5236 5236 5193 5193 5193 5236 5236 5236 5236 5236 5193 5236 5236 5236 5236 5236 5236 5280 5280 5280 5280 5280 5280 5280 5280 5280 5280 5280 5280 5280 5280 5280 5280 0 0 0 5464 5464 5464 5464 5464 5464 5512 5512 5512 5561 5561 5561 5561 5561 5561 5561 5561 5561 5561 5512 5512 5512 5512 5512 5512 5417 5236 5193 5280 5280 5325 5371 5464 5464 5512 5561 5561 5561 5561 5561 5561 5561 5561 5610 5610 5610 5610 5561 5561 5561 5561 5512 5512 5512 0 0 0 0 5417 5417 5417 5417 5417 5417 5417 5417 5417 5417 5417 5371 5371 5371 5371 5371 5371 5417 5417 5417 5417 5417 5371 5371 5325 5325 5325 5325 5325 5325 5325
    0 0 0 0 0 0 0 0 0 0 0 0 0 0 0 0 0 0 0 0 0 0 0 0 0 0 0 0 0 0 0 0 0 5512 5512 5561 5561 5512 5512 5512 5464 5464 5417 5417 5417 5464 5464 5464 5464 5464 5464 5512 5512 5512 5561 5512 5512 5512 5512 5512 5512 5561 5610 5713 5713 5713 5713 5713 5661 5713 5713 5713 5713 5765 5713 5713 5661 5610 5610 5610 5610 5661 5661 5661 5661 5661 5661 5713 5713 5713 5713 5713 5713 5713 5713 5713 5713 5713 5713 5765 5765 5765 5765 5765 5765 5765 5765 5765 5765 5765 5765 5765 5713 5713 5713 5713 5713 5713 5713 5713 5713 5713 5713 5713 5713 5713 5713 5713 5713 5713 5713 5713 5661 5661 5661 5610 5561 5512 5417 5236 5193 5193 5109 5067 5280 5417 5561 5765 5873 5873 5928 5985 6042 6042 6042 5713 5873 5818 5765 5713 5713 5713 5713 5818 5873 5928 5985 5818 5417 5193 5280 5371 5561 5713 5818 5873 5873 5873 5873 5873 5873 5873 5818 5818 5818 5193 5193 5193 5193 5193 5417 5512 5512 5464 5464 5417 5325 5280 5236 5236 5193 5193 5193 5151 5151 5109 5109 5151 5193 5193 5236 5236 5236 5193 5193 5151 5151 5151 5151 5151 5151 5151 5151 5151 5151 5109 5109 5109 5109 5109 5109 5109 5109 5109 5109 5109 5109 5109 5109 5109 5109 5109 5109 5109 5109 5109 5109 5109 5109 5151 5151 5151 5151 5151 5151 5151 5151 5151 5151 5151 5151 5151 5151 5193 5193 5193 5193 5193 5193 5193 5193 5193 5193 5193 5193 5193 5193 5193 5193 5193 5193 5151 5151 5151 5151 5151 5151 5151 5151 5151 5151 5151 5151 5109 5109 5109 5109 5109 5109 5109 5067 5027 4987 4987 4987 4987 4987 4987 4987 4948 4948 4948 4948 4948 4909 4909 4909 4909 4909 4909 4909 4948 4948 4987 4987 5027 5067 5067 5067 5067 5027 5027 4987 4987 4909 4909 4871 4871 4909 4909 4948 5027 5027 5027 4987 4987 4948 4948 4948 4948 4987 4987 5067 5109 5109 5109 5109 5109 5109 5109 5067 5067 5067 5027 5027 5027 5027 5027 5027 5027 5027 5027 5027 5027 5027 5027 5027 5027 4987 0 5193 5236 5236 5236 5236 5236 5236 5236 5193 5193 5193 5193 5236 5236 5236 5236 5236 5193 5193 5236 5236 5236 5236 5280 5280 5280 5280 5280 5280 5280 5280 5280 5280 5280 5280 5280 5280 5280 5280 5325 5325 5325 5325 5371 5417 5417 5464 5464 5464 5464 5512 5512 5561 5561 5561 5561 5561 5561 5561 5561 5561 5561 5512 5512 5512 5512 5512 5512 5417 5280 5236 5236 5236 5280 5371 5417 5464 5512 5561 5561 5561 5561 5561 5561 5561 5561 5561 5610 5610 5561 5561 5561 5561 5561 5561 5561 5512 0 0 0 0 5464 5464 5464 5464 5464 5417 5417 5417 5417 5417 5417 5325 5325 5371 5371 5371 5417 5417 5417 5417 5417 5371 5371 5371 5325 5325 5325 5325 5325 5325 5325
    0 0 0 0 0 0 0 0 0 0 0 0 0 0 0 0 0 0 0 0 0 0 0 0 0 0 0 0 0 0 0 0 0 5561 5561 5561 5561 5561 5512 5512 5464 5464 5417 5417 5464 5464 5512 5512 5512 5512 5512 5561 5561 5561 5610 5561 5561 5561 5561 5561 5561 5610 5661 5713 5713 5713 5713 5713 5661 5713 5713 5713 5713 5765 5713 5713 5713 5661 5661 5661 5713 5713 5713 5713 5713 5713 5713 5713 5713 5713 5713 5713 5713 5713 5713 5713 5713 5713 5713 5765 5765 5765 5765 5765 5765 5765 5765 5765 5765 5765 5765 5765 5713 5713 5713 5713 5713 5713 5713 5713 5713 5713 5713 5713 5713 5713 5713 5713 5713 5713 5713 5713 5661 5661 5661 5661 5661 5661 5661 5713 5713 5713 5067 5067 5417 5512 5661 5818 5873 5928 5985 5985 6042 6042 5873 5512 5713 5818 5765 5765 5873 5873 5873 5928 5928 5928 5873 5818 5561 5464 5561 5661 5818 5873 5873 5873 5873 5873 5873 5873 5873 5818 5818 5818 5818 0 0 0 0 0 5512 5512 5512 5512 5512 5464 5417 5325 5236 5236 5236 5236 5193 5193 5151 5151 5151 5151 5193 5236 5236 5236 5236 5236 5193 5193 5193 5151 5151 5151 5151 5151 5151 5151 5151 5151 5109 5109 5109 5109 5109 5109 5109 5109 5109 5109 5109 5109 5109 5109 5109 5109 5109 5109 5109 5109 5109 5109 5151 5151 5151 5151 5151 5151 5151 5151 5151 5151 5151 5151 5151 5151 5151 5193 5193 5193 5193 5193 5193 5193 5193 5193 5193 5193 5193 5193 5193 5193 5193 5193 5193 5193 5151 5151 5151 5151 5151 5151 5151 5151 5151 5151 5151 5109 5109 5109 5109 5109 5109 5067 5067 5027 4987 4987 4987 5027 5027 5027 4987 4987 4948 4948 4948 4948 4948 4948 4948 4948 4948 4948 4948 4948 4987 4987 5027 5027 5067 5067 5067 5067 5067 5067 5067 5027 4987 4948 4909 4909 4948 4987 5027 5067 5067 5067 5067 5027 4987 4948 4948 4948 4987 5027 5067 5109 5109 5109 5109 5109 5109 5109 5067 5067 5067 5067 5027 5027 5027 5027 5027 5027 5027 5027 5027 5027 5027 5027 5027 5027 5027 5027 5151 5193 5236 5236 5236 5236 5193 5193 5193 5193 5193 5193 5236 5236 5236 5236 5236 5236 5236 5236 5236 5236 5236 5280 5280 5280 5280 5280 5280 5280 5280 5325 5325 5325 5325 5280 5280 5280 5325 5325 5325 5325 5325 5371 5371 5417 5417 5417 5417 5464 5464 5512 5512 5561 5561 5561 5561 5561 5561 5561 5561 5561 5512 5512 5512 5512 5512 5512 5464 5371 5280 5193 5193 5236 5325 5417 5512 5561 5561 5561 5561 5561 5561 5561 5561 5561 5561 5561 5561 5561 5561 5561 5561 5561 5561 5561 5512 0 0 0 0 5464 5464 5464 5464 5464 5417 5417 5417 5417 5417 5417 5371 5371 5371 5371 5371 5371 5417 5417 5417 5371 5371 5371 5371 5371 5325 5371 5371 5371 5325 5325
    0 0 0 0 0 0 0 0 0 0 0 0 0 0 0 0 0 0 0 0 0 0 0 0 0 0 0 0 0 0 0 0 0 5561 5561 5610 5610 5561 5561 5561 5512 5464 5417 5417 5464 5512 5561 5561 5561 5561 5561 5610 5610 5610 5661 5610 5610 5610 5610 5610 5610 5661 5661 5713 5765 5765 5713 5713 5713 5713 5713 5713 5713 5765 5713 5713 5713 5713 5713 5713 5765 5713 5713 5713 5713 5713 5713 5713 5713 5713 5713 5713 5713 5713 5713 5713 5713 5713 5713 5713 5765 5765 5765 5765 5765 5765 5765 5765 5765 5765 5765 5765 5713 5713 5713 5713 5713 5713 5713 5713 5713 5713 5713 5713 5713 5713 5713 5713 5713 5713 5713 5661 5661 5661 5661 5661 5661 5661 5661 5661 0 0 0 0 0 0 5765 5873 5928 5985 5985 6042 6042 6042 5765 5512 5661 5713 5765 5873 5928 5928 5928 5928 5873 5818 5765 5661 5512 5561 5561 5610 5765 5873 5873 5873 5873 5873 5873 5873 5873 5818 5818 5818 5818 0 0 0 0 0 5512 5512 5464 5464 5464 5464 5417 5325 5236 5236 5236 5236 5193 5193 5151 5151 5151 5193 5236 5236 5236 5280 5236 5236 5193 5193 5193 5193 5193 5151 5151 5151 5151 5151 5151 5151 5109 5109 5109 5109 5109 5109 5109 5109 5109 5109 5109 5109 5109 5109 5109 5109 5109 5109 5109 5109 5109 5151 5151 5151 5151 5151 5151 5151 5151 5151 5151 5151 5151 5151 5193 5193 5193 5193 5193 5193 5193 5193 5193 5193 5193 5193 5193 5193 5193 5193 5193 5193 5193 5193 5193 5193 5193 5193 5193 5193 5193 5193 5151 5151 5151 5151 5151 5109 5109 5109 5109 5109 5067 5067 5027 5027 5027 4987 5027 5027 5027 5027 5027 4987 4987 4987 4948 4948 4948 4948 4948 4948 4948 4948 4948 4948 4987 4987 5027 5027 5027 5067 5067 5067 5067 5067 5067 5067 5067 5027 4987 4987 4987 5027 5027 5067 5067 5067 5067 5027 5027 4987 4987 4987 5027 5067 5109 5109 5109 5109 5109 5109 5067 5067 5067 5067 5067 5067 5027 5027 5027 5027 5027 5027 5027 5027 5027 5027 5027 5027 5027 5027 5027 5067 5109 5193 5193 5236 5236 5236 5193 5193 5193 5193 5193 5236 5236 5236 5236 5236 5236 5236 5236 5236 5236 5236 5236 5280 5280 5280 5280 5280 5280 5325 5325 5325 5325 5325 5325 5325 5325 5325 5325 5325 5325 5325 5325 5371 5371 5371 5371 5417 5417 5417 5417 5464 5512 5512 5561 5561 5561 5561 5561 5561 5561 5512 5512 5512 5512 5512 5512 5512 5512 5464 5417 5280 5236 5325 5417 5512 5561 5561 5610 5610 5561 5561 5561 5561 5561 5561 5561 5561 5561 5561 5561 5561 5561 5561 5561 5561 5512 0 0 0 0 5464 5464 5464 5464 5464 5417 5417 5417 5417 5417 5417 5371 5371 5371 5325 5325 5371 5371 5371 5371 5371 5371 5371 5371 5371 5371 5371 5371 5371 5371 5371
    0 0 0 0 0 0 0 0 0 0 0 0 0 0 0 0 0 0 0 0 0 0 0 0 0 0 0 0 0 0 0 0 0 5610 5661 5661 5661 5610 5610 5561 5512 5464 5417 5417 5512 5561 5610 5610 5610 5610 5610 5661 5661 5661 5713 5661 5661 5661 5610 5610 5661 5661 5713 5765 5765 5765 5713 5713 5713 5713 5713 5713 5713 5713 5713 5713 5713 5765 5765 5765 5765 5713 5713 5713 5713 5713 5713 5713 5713 5713 5713 5713 5713 5713 5713 5713 5713 5713 5713 5713 5713 5713 5713 5713 5713 5765 5765 5765 5765 5765 5765 5765 5713 5713 5713 5713 5713 5713 5713 5713 5713 5713 5713 5713 5713 5713 5713 5713 5713 5713 5713 5661 5661 5661 5661 5661 5661 5661 5713 5765 5765 5765 0 0 0 0 5765 5928 5985 5985 5985 6042 6042 6042 5610 5512 5610 5661 5713 5818 5928 5928 5928 5873 5765 5713 5661 5561 5464 5512 5561 5661 5818 5928 5928 5928 5928 5873 5873 5873 5873 5818 5818 5818 5818 0 0 0 0 0 5417 5417 5417 5371 5371 5371 5325 5280 5236 5236 5193 5193 5193 5193 5151 5151 5151 5151 5151 5193 5236 5236 5236 5236 5236 5193 5193 5193 5193 5193 5151 5151 5151 5151 5151 5151 5109 5109 5109 5109 5109 5109 5109 5109 5109 5109 5109 5109 5109 5109 5109 5109 5109 5109 5109 5109 5151 5151 5151 5151 5151 5151 5151 5151 5151 5151 5151 5151 5193 5193 5193 5193 5193 5193 5193 5193 5193 5193 5193 5193 5193 5193 5193 5193 5193 5193 5193 5193 5193 5193 5193 5193 5193 5193 5193 5193 5193 5193 5193 5151 5151 5151 5151 5109 5109 5067 5067 5067 5067 5067 5027 5027 5027 5027 5027 5027 5027 5027 5027 5027 4987 4987 4948 4948 4948 4948 4948 4948 4948 4948 4948 4987 4987 5027 5027 5027 5027 5067 5067 5067 5067 5067 5067 5067 5067 5027 5027 4987 5027 5027 5027 5067 5109 5067 5067 5067 5027 4987 4987 5027 5067 5067 5109 5109 5109 5109 5109 5067 5067 5067 5067 5067 5067 5067 5027 5027 5027 5027 5027 5027 5027 5027 5027 5027 5027 5027 5027 5027 5067 5067 5109 5151 5193 5193 5193 5236 5193 5193 5193 5193 5193 5236 5236 5236 5236 5236 5236 5236 5236 5236 5236 5236 5280 5280 5280 5280 5280 5280 5325 5325 5325 5325 5325 5325 5325 5325 5325 5325 5325 5325 5325 5371 5325 5371 5371 5371 5371 5371 5371 5371 5417 5417 5464 5512 5512 5561 5561 5561 5561 5561 5561 5512 5512 5512 5512 5512 5512 5561 5561 5610 5561 5464 5417 5512 5512 5561 5610 5610 5610 5610 5610 5610 5561 5561 5561 5561 5610 5610 5610 5610 5561 5561 5561 5561 5561 5561 5561 0 0 0 0 5464 5464 5464 5464 5464 5417 5417 5417 5417 5417 5371 5371 5371 5371 5325 5325 5325 5325 5325 5325 5371 5325 5325 5325 5371 5417 5417 5464 5417 5417 5417
    0 0 0 0 0 0 0 0 0 0 0 0 0 0 0 0 0 0 0 0 0 0 0 0 0 0 0 0 0 0 0 0 0 5713 5713 5713 5713 5661 5661 5610 5561 5512 5464 5417 5561 5661 5661 5661 5713 5713 5713 5713 5713 5713 5713 5713 5713 5713 5661 5661 5713 5713 5713 5765 5765 5765 5713 5713 5661 5661 5661 5661 5713 5713 5713 5713 5713 5713 5765 5765 5765 5713 5713 5713 5661 5661 5661 5713 5713 5713 5713 5713 5713 5713 5713 5713 5713 5713 5713 5713 5713 5713 5713 5713 5713 5765 5765 5765 5765 5765 5765 5765 5713 5713 5713 5713 5713 5713 5713 5713 5713 5713 5713 5713 5713 5713 5713 5713 5713 5713 5713 5661 5661 5661 5661 5661 5661 5713 5713 5765 5765 5765 5713 0 0 0 0 0 0 0 0 0 0 0 5561 5561 5661 5713 5713 5818 5873 5928 5928 5818 5713 5661 5610 5512 5464 5561 5610 5713 5818 5928 5928 5928 5928 5873 5873 5873 5873 5818 5818 5818 5818 0 0 0 0 0 5325 5371 5325 5325 5280 5280 5236 5236 5236 5236 5193 5193 5193 5193 5151 5151 5151 5151 5151 5193 5193 5236 5236 5236 5236 5193 5193 5193 5193 5193 5193 5151 5151 5151 5151 5151 5109 5109 5109 5109 5109 5109 5109 5109 5109 5109 5109 5109 5109 5109 5109 5109 5109 5109 5109 5151 5151 5151 5151 5151 5151 5193 5193 5193 5193 5193 5193 5193 5193 5193 5193 5193 5193 5193 5193 5193 5193 5151 5193 5193 5193 5193 5193 5193 5193 5193 5193 5193 5193 5193 5193 5193 5193 5193 5193 5193 5193 5193 5193 5193 5151 5151 5151 5109 5109 5067 5067 5067 5067 5067 5027 5027 5027 5027 5027 5027 5067 5027 5027 5027 4987 4987 4987 4948 4948 4948 4948 4948 4948 4948 4987 4987 5027 5027 5027 5027 5027 5027 5027 5027 5067 5067 5067 5067 5067 5027 5027 4987 5027 5027 5067 5067 5109 5109 5109 5067 5067 5067 5067 5067 5067 5109 5109 5109 5109 5109 5109 5067 5067 5067 5067 5067 5067 5067 5027 5027 5027 5027 5027 5027 5027 5027 5027 5027 5027 5027 5027 5027 5067 5067 5109 5151 5193 5193 5193 5236 5193 5193 5193 5193 5236 5236 5236 5236 5236 5236 5236 5236 5236 5236 5236 5280 5280 5280 5280 5280 5280 5280 5325 5325 5325 5325 5325 5325 5325 5325 5325 5325 5325 5325 5371 5371 5325 5325 5325 5371 5371 5371 5371 5371 5371 5371 5417 5464 5512 5512 5561 5561 5561 5561 5561 5512 5512 5512 5512 5512 5512 5561 5561 5610 5610 5661 5661 5661 5661 5661 5661 5610 5610 5610 5610 5610 5610 5610 5610 5610 5610 5610 5610 5610 5610 5561 5561 5561 5561 5561 5561 0 0 0 0 5512 5464 5464 5464 5464 5417 0 0 5371 5371 5371 5371 5371 5325 5325 5325 5280 5280 5325 5325 5325 5325 5325 5325 5417 5512 5512 5512 5464 5464 5464</data></DepthMat>
</opencv_storage>
