<?xml version="1.0"?>
<opencv_storage>
<DepthMat type_id="opencv-matrix">
  <rows>37</rows>
  <cols>640</cols>
  <dt>w</dt>
  <data>
    0 0 0 0 0 0 0 0 0 0 0 0 0 0 0 0 0 0 0 0 0 0 0 0 0 0 0 0 0 0 0 0 0 0 0 0 0 0 0 0 0 0 0 0 0 0 0 0 0 0 0 0 0 0 0 0 0 0 0 0 0 0 0 0 0 0 0 0 0 0 0 0 0 0 0 0 0 0 0 0 0 0 0 0 0 0 0 0 0 0 0 0 0 0 0 0 0 0 0 0 0 0 0 0 0 0 0 0 0 0 0 0 0 0 0 0 0 0 0 0 0 0 0 0 0 0 0 0 0 0 0 0 0 0 0 0 0 0 0 0 0 0 0 0 0 0 0 0 0 0 0 0 0 0 0 0 0 0 8728 8728 8608 8608 8608 8608 8492 8492 8379 8379 8379 8492 8492 8608 8608 8608 8608 8608 8608 8608 8608 8608 8608 8608 8608 8608 8608 8608 8608 8608 0 0 0 0 0 0 0 0 0 0 0 8161 8161 8161 8268 8268 8268 8379 8379 8379 8379 8379 8379 8379 0 0 0 0 0 0 7758 7855 7954 7954 7954 8056 8379 8492 8728 9241 9521 9521 9521 9521 9521 9521 9379 9521 9521 9521 9521 9521 9521 9521 9379 9379 9379 9379 0 0 0 0 0 0 0 0 0 0 0 0 0 0 0 0 0 0 0 0 0 0 0 0 0 0 0 0 0 0 0 0 0 0 0 0 0 0 0 0 0 0 0 0 0 0 0 0 5818 5818 5818 5873 5873 5928 5928 5985 5985 6042 6042 6042 6042 6101 6161 6222 6284 6284 6284 6347 6347 6347 6347 6347 6347 6347 6546 6830 7061 7061 7061 6982 6905 6905 6905 6905 6905 6982 6982 6982 6982 6982 6905 6905 6830 6830 6905 6905 6905 6905 6905 6830 6830 6830 6830 6830 6830 6830 6830 6830 6830 6830 6757 6757 6757 6757 6757 6757 6757 6757 6757 6757 6757 6757 6685 6685 6685 6685 6685 6685 0 0 0 0 0 0 0 0 0 0 0 0 0 0 0 0 0 0 0 0 0 0 0 0 0 0 0 0 0 0 0 0 0 0 0 0 0 0 0 0 0 0 0 0 0 0 0 0 0 0 0 14962 14614 14614 14614 14614 14282 14282 0 0 0 0 0 0 0 0 0 0 0 0 0 0 0 0 0 0 0 0 0 0 0 0 0 0 0 0 0 0 0 0 0 0 0 0 0 0 0 0 0 0 0 0 0 0 0 0 10135 10135 10135 9975 9668 9379 9241 9241 9107 9241 9521 9668 9668 9668 9521 9379 9379 9379 9241 9241 9241 9241 9241 9241 9107 9107 9107 9107 9107 9241 9379 9379 9379 9379 9379 9241 9241 9241 9241 9241 9379 9521 9521 9668 9668 9819 9819 9819 9819 9819 9819 9819 9819 9819 9819 0 0 0 8851 8851 8851 8977 9107 9107 9107 9107 9107 9107 9107 9241 9241 9107 9107 8977 8851 8851 8728 8608 8608 8728 8728 8728 8851 8851 8977 8977 8977 8977 8977 8977 8977 8851 8851 8851 8851 8851 8851 8851 8977 8977 8977 8851 8851 8851 8728 8728 8728 8608 8608 8608 8608 8608 8608 8608 8608 8608 8728 8728 8728 8728 8728 8851 8851 8851 8851 8851 8728 8728 8728 8728 8728 8728 8728 8728 8728 8608 8608 8492 8492 8492 8492 8492 8608 8728 8728 8728 8728 8851 8977 8977 9107 9107 9107 9107 9107 9107 9107 9107 9107 9107
    0 0 0 0 0 0 0 0 0 0 0 0 0 0 0 0 0 0 0 0 0 0 0 0 0 0 0 0 0 0 0 0 0 0 0 0 0 0 0 0 0 0 0 0 0 0 0 0 0 0 0 0 0 0 0 0 0 0 0 0 0 0 0 0 0 0 0 0 0 0 0 0 0 0 0 0 0 0 0 0 0 0 0 0 0 0 0 0 0 0 0 0 0 0 0 0 0 0 0 0 0 0 0 0 0 0 0 0 0 0 0 0 0 0 0 0 0 0 0 0 0 0 0 0 0 0 0 0 0 0 0 0 0 0 0 0 0 0 0 0 0 0 0 0 0 0 0 0 0 0 0 0 0 0 0 0 0 0 8728 8608 8608 8608 8608 8492 8492 8492 8379 8379 8379 8492 8492 8492 8608 8608 8608 8608 8608 8608 8608 8608 8608 8608 8608 8608 8608 8608 8608 8608 8492 8492 0 0 0 0 0 0 0 0 0 8161 8161 8161 8268 8268 8379 8379 8379 8379 8379 8379 8379 8379 8379 0 0 0 0 0 7758 7855 7954 7954 8161 8379 8608 8851 8977 9241 9521 9521 9521 9521 9521 9521 9521 9521 9521 9521 9521 9521 9521 9521 9379 9379 9379 9379 0 0 0 0 0 0 0 0 0 0 0 0 0 0 0 0 0 0 0 0 0 0 0 0 0 0 0 0 0 0 0 0 0 0 0 0 0 0 0 0 0 0 0 0 0 0 0 0 0 5818 5873 5873 5873 5928 5928 5985 5985 5985 5985 5985 6042 6042 6101 6161 6222 6284 6284 6284 6347 6347 6347 6347 6347 6347 6347 6347 6347 0 0 6905 6905 6905 6905 6905 6905 6982 7061 6982 6982 6982 6905 6905 6830 6830 6905 6905 6905 6905 6905 6830 6830 6830 6830 6830 6830 6830 6830 6830 6757 6757 6757 6757 6757 6757 6757 6757 6757 6757 6757 6757 6757 6757 6685 6685 6685 6685 6685 6685 0 0 0 0 0 0 0 0 0 0 0 0 0 0 0 0 0 0 0 0 0 0 0 0 0 0 0 0 0 0 0 0 0 0 0 0 0 0 0 0 0 0 0 0 0 0 0 0 0 0 0 14614 14282 14282 14282 14282 14282 14282 0 0 0 0 0 0 0 0 0 0 0 0 0 0 0 0 0 0 0 0 0 0 0 0 0 0 0 0 0 0 0 0 0 0 0 0 0 0 0 0 0 0 0 0 0 0 0 0 10135 10135 9975 9975 9668 9379 9241 9241 9241 9379 9668 9668 9668 9521 9521 9379 9379 9379 9379 9241 9241 9241 9241 9241 9241 9107 9107 9107 9107 9379 9379 9379 9379 9379 9241 9241 9107 9107 9107 9107 9241 9521 9668 9668 9668 9819 9819 9819 9819 9819 9819 9819 9819 9819 9819 0 0 8851 8851 8851 8851 8851 8977 8977 8977 8977 8977 8977 8977 8977 8977 8977 8977 8851 8728 8728 8608 8608 8608 8608 8608 8608 8608 8728 8728 8728 8728 8728 8728 8728 8728 8728 8728 8728 8728 8728 8728 8728 8728 8851 8851 8851 8851 8851 8728 8728 8728 8728 8728 8728 8728 8608 8608 8608 8608 8608 8608 8728 8728 8728 8728 8728 8851 8851 8851 8977 8728 8728 8728 8728 8728 8851 8851 8728 8728 8728 8608 8608 8492 8492 8492 8492 8608 8728 8728 8851 8851 8977 8977 9107 9107 9107 9107 9107 9107 9107 9107 9107 9107 9107
    0 0 0 0 0 0 0 0 0 0 0 0 0 0 0 0 0 0 0 0 0 0 0 0 0 0 0 0 0 0 0 0 0 0 0 0 0 0 0 0 0 0 0 0 0 0 0 0 0 0 0 0 0 0 0 0 0 0 0 0 0 0 0 0 0 0 0 0 0 0 0 0 0 0 0 0 0 0 0 0 0 0 0 0 0 0 0 0 0 0 0 0 0 0 0 0 0 0 0 0 0 0 0 0 0 0 0 0 0 0 0 0 0 0 0 0 0 0 0 0 0 0 0 0 0 0 0 0 0 0 0 0 0 0 0 0 0 0 0 0 0 0 0 0 0 0 0 0 0 0 0 0 0 0 0 0 0 0 8608 8608 8608 8608 8492 8492 8492 8492 8379 8379 8379 8379 8492 8492 8492 8492 8492 8492 8492 8492 8492 8492 8492 8492 8608 8608 8608 8608 8608 8492 8379 8492 8379 8492 8492 8728 0 0 0 0 0 8268 8161 8268 8268 8268 8379 8379 8379 8379 8379 8379 8379 8379 8379 0 0 0 0 0 0 0 8268 8268 8492 8728 8977 9107 9107 9379 9521 9521 9521 9521 9521 9521 9521 9521 9521 9521 9521 9521 9521 9521 9521 9521 9521 9521 0 0 0 0 0 0 0 0 0 0 0 0 0 0 0 0 0 0 0 0 0 0 0 0 0 0 0 0 0 0 0 0 0 0 0 5561 5561 5561 5561 5561 5561 0 0 0 0 5713 5713 5765 5765 5818 5873 5873 5928 5928 5928 5985 5985 5985 5985 5985 6042 6042 6101 6161 6222 6222 6284 6284 6347 6347 6347 6347 6347 6347 6347 6347 6347 6347 0 0 6830 6830 6830 6830 6830 7061 7061 7061 6982 6982 6905 6905 6905 6830 6830 6830 6905 6905 6905 6830 6830 6830 6830 6830 6757 6757 6757 6757 6757 6757 6757 6757 6757 6757 6757 6757 6757 6757 6757 6757 6757 6757 6685 6685 6685 6685 6685 6685 0 0 0 0 0 0 0 0 0 0 0 0 0 0 0 0 0 0 0 0 0 0 0 0 0 0 0 0 0 0 0 0 0 0 0 0 0 0 0 0 0 0 0 0 0 0 0 0 0 0 0 0 0 0 0 0 0 0 0 0 0 0 0 0 0 0 0 0 0 0 0 0 0 0 0 0 0 0 0 0 0 0 0 0 0 0 0 0 0 0 0 0 0 0 0 0 0 0 0 0 0 0 0 0 0 0 0 0 0 9668 9379 9241 9241 9379 9241 9521 9819 9819 9521 9521 9521 9379 9379 9379 9379 9241 9241 9241 9241 9241 9241 9107 9107 9107 9379 9379 9379 9379 9379 9379 9241 9107 8977 8977 8977 8977 9107 9379 9668 9668 9668 9819 9819 9819 9819 9819 9819 9819 9819 9819 9819 0 0 8851 8851 8851 8851 8851 8851 8851 8977 8851 8851 8851 8851 8851 8851 8851 8851 8728 8728 8608 8608 8608 8608 8608 8608 8608 8608 8608 8728 8608 8608 8608 8608 8608 8608 8728 8728 8728 8728 8728 8728 8728 8728 8728 8728 8851 8851 8851 8851 8728 8728 8728 8728 8728 8728 8728 8608 8608 8608 8608 8608 8608 8728 8728 8728 8728 8728 8728 8851 8977 8608 8608 8608 8608 8851 8977 8851 8851 8851 8728 8608 8608 8492 8492 8492 8492 8492 8728 8851 8851 8977 8977 8977 9107 9107 9107 9107 9107 9107 9107 9107 8977 8977 8977
    0 0 0 0 0 0 0 0 0 0 0 0 0 0 0 0 0 0 0 0 0 0 0 0 0 0 0 0 0 0 0 0 0 0 0 0 0 0 0 0 0 0 0 0 0 0 0 0 0 0 0 0 0 0 0 0 0 0 0 0 0 0 0 0 0 0 0 0 0 0 0 0 0 0 0 0 0 0 0 0 0 0 0 0 0 0 0 0 0 0 0 0 0 0 0 0 0 0 0 0 0 0 0 0 0 0 0 0 0 0 0 0 0 0 0 0 0 0 0 0 0 0 0 0 0 0 0 0 0 0 0 0 0 0 0 0 0 0 0 0 0 0 0 0 0 0 0 0 0 0 0 0 0 0 0 0 0 0 8608 8608 8608 8608 8492 8492 8492 8492 8379 8379 8379 8379 8492 8492 8492 8492 8492 8492 8492 8492 8492 8492 8492 8492 8492 8608 8608 8608 8608 8492 8379 8379 8379 8379 8492 8608 0 0 0 0 0 8268 8161 8268 8268 8268 8379 8379 8379 8379 8379 8379 8379 8379 8379 8379 0 0 0 0 0 0 0 9379 9107 9107 9241 9241 9241 9379 9521 9521 9521 9521 9521 9521 9521 9521 9521 9521 9521 9521 9521 9521 9521 9521 9521 9521 0 0 0 0 0 0 0 0 0 0 0 0 0 0 0 0 0 0 0 0 0 0 0 0 0 0 0 0 0 0 0 0 0 0 5561 5561 5561 5561 5561 5561 5561 5561 0 0 5713 5713 5713 5765 5818 5818 5873 5873 5928 5928 5928 5928 5985 5985 5985 5985 5985 6042 6042 6101 6161 6222 6222 6284 6284 6347 6347 6347 6347 6347 6347 6347 6347 6347 6905 6905 6905 6905 6905 6905 0 7061 7061 7061 6982 6982 6982 6905 6905 6905 6830 6830 6905 6905 6905 6830 6830 6830 6830 6757 6757 6757 6757 6757 6757 6757 6757 6757 6757 6757 6757 6757 6757 6757 6757 6757 6757 6757 6685 6685 6685 6685 6685 6615 0 0 0 0 0 0 0 0 0 0 0 0 0 0 0 0 0 0 0 0 0 0 0 0 0 0 0 0 0 0 0 0 0 0 0 0 0 0 0 0 0 0 0 0 0 0 0 0 0 0 0 0 0 0 0 0 0 0 0 0 0 0 0 0 0 0 0 0 0 0 0 0 0 0 0 0 0 0 0 0 0 0 0 0 0 0 0 0 0 0 0 0 0 0 0 0 0 0 0 0 0 0 0 0 0 0 0 0 0 0 0 8977 8977 8977 8977 9521 9819 9668 9521 9521 9521 9379 9379 9379 9379 9241 9241 9241 9241 9241 9241 9107 9107 9107 9379 9379 9379 9379 9379 9241 9107 9107 8977 8851 8851 8977 9107 9379 9668 9668 9668 9668 9668 9819 9819 9819 9819 9819 9819 9819 9819 0 0 8851 8851 8851 8851 8851 8851 8728 8851 8728 8728 8728 8728 8608 8608 8608 8608 8608 8608 8608 8608 8608 8492 8492 8492 8492 8608 8608 8728 8608 8608 8608 8608 8608 8608 8728 8728 8728 8728 8728 8728 8728 8608 8728 8728 8851 8851 8851 8851 8851 8728 8728 8728 8728 8728 8728 8608 8608 8608 8608 8608 8608 8728 8728 8728 8728 8728 8851 8851 8977 9107 9107 9107 9107 9107 9107 8977 8977 8851 8728 8728 8608 8608 8492 8492 8492 8492 8728 8851 8977 8977 8977 9107 9107 9107 9107 9107 9107 9107 9107 8977 8977 8977 8851
    0 0 0 0 0 0 0 0 0 0 0 0 0 0 0 0 0 0 0 0 0 0 0 0 0 0 0 0 0 0 0 0 0 0 0 0 0 0 0 0 0 0 0 0 0 0 0 0 0 0 0 0 0 0 0 0 0 0 0 0 0 0 0 0 0 0 0 0 0 0 0 0 0 0 0 0 0 0 0 0 0 0 0 0 0 0 0 0 0 0 0 0 0 0 0 0 0 0 0 0 0 0 0 0 0 0 0 0 0 0 0 0 0 0 0 0 0 0 0 0 0 0 0 0 0 0 0 0 0 0 0 0 0 0 0 0 0 0 0 0 0 0 0 0 0 0 0 0 0 0 0 0 0 0 0 0 0 0 8608 8608 8608 8492 8492 8492 8492 8379 8379 8379 8379 8379 8379 8492 8492 8492 8492 8492 8492 8492 8492 8492 8492 8492 8492 8608 8608 8608 8608 8492 8379 8379 8379 8379 8379 8492 8379 8379 0 0 0 8268 8268 8268 8268 8379 8379 8379 8379 8379 8379 8379 8379 8379 8379 8379 0 0 0 0 0 0 9379 9379 9379 9379 9379 9379 9379 9521 9521 9521 9521 9521 9521 9521 9521 9521 9521 9521 9521 9521 9521 9521 9521 9521 9521 9521 9521 0 0 0 0 0 0 0 0 0 0 0 0 0 0 0 0 0 0 0 0 0 0 0 0 0 0 0 0 0 0 0 0 0 5561 5561 5561 5561 5561 5561 5561 5561 0 0 5713 5713 5713 5765 5818 5818 5873 5873 5928 5928 5928 5928 5928 5985 5985 5928 5985 5985 6042 6101 6161 6161 6222 6222 6284 6284 6347 6347 6347 6412 6412 6412 6412 6546 6830 6905 6905 6905 6905 6905 6905 7061 7061 7061 7061 6982 6982 6905 6905 6905 6830 6830 6830 6830 6830 6830 6830 6830 6830 6757 6757 6757 6757 6757 6757 6757 6757 6757 6757 6757 6757 6757 6757 6757 6757 6757 6757 6757 6685 6685 6685 6685 6685 6615 0 0 0 0 0 0 0 0 0 0 0 0 0 0 0 0 0 0 0 0 0 0 0 0 0 0 0 0 0 0 0 0 0 0 0 0 0 0 0 0 0 0 0 0 0 0 0 0 0 0 0 0 0 0 0 0 0 0 0 0 0 0 0 0 0 0 0 0 0 0 0 0 0 0 0 0 0 0 0 0 0 0 0 0 0 0 0 0 0 0 0 0 0 0 0 0 0 0 0 0 0 0 0 0 0 0 0 0 0 0 0 0 0 0 0 0 9668 9521 9521 9521 9521 9379 9379 9379 9379 9241 9241 9241 9241 9241 9241 9107 9107 0 9379 9379 9379 9379 9379 9241 9107 8977 8851 8728 8728 8728 8851 9107 9521 9668 9668 9668 9668 9819 9819 9819 9819 9819 9819 9819 9819 0 0 8851 8851 8851 8851 8728 8728 8728 8728 8728 8608 8608 8608 8608 8608 8608 8608 8608 8608 8608 8492 8492 8492 8492 8492 8492 8608 8608 8728 8608 8608 8608 8608 8608 8608 8728 8728 8851 8851 8728 8728 8728 8728 8728 8728 8851 8977 8977 8977 8851 8851 8728 8728 8728 8728 8728 8728 8608 8608 8608 8608 8608 8728 8728 8728 8728 8728 8851 8851 8851 8977 8851 8851 8851 8977 8977 8977 8977 8851 8851 8728 8608 8608 8608 8492 8608 8608 8728 8977 8977 8977 8977 9107 9107 9107 9107 9107 9107 9107 8977 8977 8977 8851 8851
    0 0 0 0 0 0 0 0 0 0 0 0 0 0 0 0 0 0 0 0 0 0 0 0 0 0 0 0 0 0 0 0 0 0 0 0 0 0 0 0 0 0 0 0 0 0 0 0 0 0 0 0 0 0 0 0 0 0 0 0 0 0 0 0 0 0 0 0 0 0 0 0 0 0 0 0 0 0 0 0 0 0 0 0 0 0 0 0 0 0 0 0 0 0 0 0 0 0 0 0 0 0 0 0 0 0 0 0 0 0 0 0 0 0 0 0 0 0 0 0 0 0 0 0 0 0 0 0 0 0 0 0 0 0 0 0 0 0 0 0 0 0 0 0 0 0 0 0 0 0 0 0 0 0 0 0 0 0 8608 8608 8608 8492 8492 8492 8492 8379 8379 8379 8379 8379 8379 8379 8492 8492 8492 8492 8492 8492 8492 8492 8492 8492 8492 8492 8608 8608 8608 8492 8492 8379 8379 8379 8492 8492 8379 8379 8379 0 0 8268 8268 8268 8379 8379 8379 8379 8492 8379 8379 8379 8379 8379 8379 8379 0 0 0 0 0 9379 9379 9379 9379 9379 9379 9379 9379 9521 9521 9521 9521 9521 9521 9521 9521 9521 9521 9521 9521 9521 9521 9521 9521 9521 9521 9668 9668 9668 0 0 0 0 0 0 0 0 0 0 0 0 0 0 0 0 0 0 0 0 0 0 0 0 0 0 0 0 0 0 0 0 5610 5610 5610 5610 5610 5610 5610 5610 5713 5713 5713 5713 5713 5765 5818 5818 5873 5873 5873 5928 5928 5928 5928 5928 5928 5928 5928 5928 5985 6042 6101 6161 6222 6222 6284 6284 6347 6347 6347 6412 6412 6412 6478 6615 6757 6830 6905 6905 6905 6905 6830 7061 7061 7061 7061 6982 6982 6905 6905 6905 6905 6905 6905 6905 6830 6830 6830 6830 6830 6757 6757 6757 6757 6757 6757 6757 6757 6757 6757 6757 6757 6757 6757 6757 6757 6757 6757 6757 6685 6685 6685 6685 6685 6615 0 0 0 0 0 0 0 0 0 0 0 0 0 0 0 0 0 0 0 0 0 0 0 0 0 0 0 0 0 0 0 0 0 0 0 0 0 0 0 0 0 0 0 0 0 0 0 0 0 0 0 0 0 0 0 0 0 0 0 0 0 0 0 0 0 0 0 0 0 0 0 0 0 0 0 0 0 0 0 0 0 0 0 0 0 0 0 0 0 0 0 0 0 0 0 0 0 0 0 0 0 0 0 0 0 0 0 0 0 0 0 0 0 0 0 0 0 0 9379 9379 9379 9379 9379 9379 9379 9241 9241 9241 9379 9379 9379 9379 9521 9379 9379 9379 9379 9379 9379 9241 8977 8851 8851 8608 8608 8608 8608 8851 9379 9668 9668 9668 9668 9819 9819 9819 9819 9819 9819 0 0 0 0 8851 8851 8728 8728 8728 8728 8728 8608 8608 8608 8492 8492 8492 8492 8492 8492 8492 8492 8492 8492 8492 8492 8492 8492 8492 8492 8608 8608 8608 8608 8608 8608 8608 8608 8608 8608 8608 8608 8608 8728 8728 8728 8728 8728 8851 8977 8977 8977 8851 8851 8851 8728 8728 8728 8728 8728 8728 8608 8608 8608 8608 8728 8728 8728 8728 8728 8851 8851 8851 8851 8728 8728 8728 8851 8977 8977 8977 8977 8851 8728 8728 8608 8608 8608 8608 8608 8728 8977 8977 8977 8977 9107 9107 9107 9107 9107 9107 8977 8977 8977 8851 8851 8851
    0 0 0 0 0 0 0 0 0 0 0 0 0 0 0 0 0 0 0 0 0 0 0 0 0 0 0 0 0 0 0 0 0 0 0 0 0 0 0 0 0 0 0 0 0 0 0 0 0 0 0 0 0 0 0 0 0 0 0 0 0 0 0 0 0 0 0 0 0 0 0 0 0 0 0 0 0 0 0 0 0 0 0 0 0 0 0 0 0 0 0 0 0 0 0 0 0 0 0 0 0 0 0 0 0 0 0 0 0 0 0 0 0 0 0 0 0 0 0 0 0 0 0 0 0 0 0 0 0 0 0 0 0 0 0 0 0 0 0 0 0 0 0 0 0 0 0 0 0 0 0 0 0 0 0 0 0 0 8492 8492 8492 8492 8492 8492 8492 8379 8379 8379 8379 8379 8379 8379 8379 8379 8379 8379 8379 8379 8379 8379 8379 8492 8492 8492 8492 8608 8492 8492 8492 8379 8379 8379 8492 8492 8492 8379 8379 8379 0 8268 8268 8268 8379 8379 8379 8492 8492 8492 8492 8492 8379 8379 8379 8379 0 0 0 0 0 9521 9521 9521 9521 9521 9379 9379 9379 9521 9521 9521 9521 9521 9521 9521 9521 9521 9521 9521 9521 9521 9521 9521 9668 9668 9668 9668 9668 9668 9668 9668 9521 0 0 0 0 0 0 0 0 0 0 0 0 0 0 0 0 0 0 0 0 0 0 0 0 0 0 0 0 0 5661 5661 5661 5661 5661 5610 5610 5661 5713 5713 5713 5713 5713 5765 5765 5818 5873 5873 5928 5928 5928 5928 5928 5928 5928 5928 5928 5928 5985 6042 6101 6161 6222 6222 6222 6284 6284 6347 6347 6412 6412 6412 6478 6546 6685 6757 6830 6830 6830 6830 6757 6982 7061 7061 7061 6982 6982 6905 6905 6905 6905 6905 6905 6905 6905 6830 6830 6830 6830 6757 6757 6757 6757 6757 6757 6757 6757 6830 6830 6830 6830 6830 6757 6757 6757 6757 6757 6757 6685 6685 6685 6685 6685 6615 0 0 0 0 0 0 0 0 0 0 0 0 0 0 0 0 0 0 0 0 0 0 0 0 0 0 0 0 0 0 0 0 0 0 0 0 0 0 0 0 0 0 0 0 0 0 0 0 0 0 0 0 0 0 0 0 0 0 0 0 0 0 0 0 0 0 0 0 0 0 0 0 0 0 0 0 0 0 0 0 0 0 0 0 0 0 0 0 0 0 0 0 0 0 0 0 0 0 0 0 0 0 0 0 0 0 0 0 0 0 0 0 0 0 0 0 0 0 0 0 0 0 9241 9241 9241 9241 9241 9379 9379 9379 9521 9521 9521 9379 9379 9379 9379 9379 9241 9107 8851 8851 8728 8492 8608 8608 8492 8608 9107 9521 9521 9521 9521 9668 0 0 0 0 0 0 0 0 0 0 8728 8728 8728 8728 8728 8608 8608 8492 8492 8492 8492 8379 8379 8379 8492 8492 8492 8492 8492 8492 8492 8492 8492 8492 8492 8608 8608 8608 8608 8608 8608 8608 8608 8379 8379 8492 8608 8608 8728 8728 8728 8728 8728 8851 8977 8977 8977 8851 8851 8851 8851 8728 8728 8728 8728 8728 8608 8608 8608 8728 8728 8728 8728 8728 8728 8728 8728 8728 8728 8728 8608 8728 8851 8851 8977 8977 8977 8851 8728 8728 8608 8608 8608 8608 8608 8728 8851 8977 8977 8977 8977 8977 9107 9107 8977 8977 8977 8977 8851 8851 8851 8851
    0 0 0 0 0 0 0 0 0 0 0 0 0 0 0 0 0 0 0 0 0 0 0 0 0 0 0 0 0 0 0 0 0 0 0 0 0 0 0 0 0 0 0 0 0 0 0 0 0 0 0 0 0 0 0 0 0 0 0 0 0 0 0 0 0 0 0 0 0 0 0 0 0 0 0 0 0 0 0 0 0 0 0 0 0 0 0 0 0 0 0 0 0 0 0 0 0 0 0 0 0 0 0 0 0 0 0 0 0 0 0 0 0 0 0 0 0 0 0 0 0 0 0 0 0 0 0 0 0 0 0 0 0 0 0 0 0 0 0 0 0 0 0 0 0 0 0 0 0 0 0 0 0 0 0 0 0 0 8492 8492 8492 8492 8492 8492 8492 8379 8379 8379 8379 8379 8379 8379 8379 8379 8379 8379 8379 8379 8379 8379 8379 8379 8492 8492 8492 8492 8492 8492 8492 8492 8492 8492 8492 8492 8492 8492 8379 8379 0 0 8268 8492 8492 8492 8492 8492 8492 8492 8492 8492 8492 8379 8379 8379 0 0 0 0 9521 9521 9521 9521 9521 9521 9521 9521 9379 9521 9521 9521 9521 9521 9521 9521 9521 9521 9521 9521 9521 9521 9668 9668 9668 9668 9668 9668 9668 9668 9668 9668 9521 9521 0 0 0 0 0 0 0 0 0 0 0 0 0 0 0 0 0 0 0 0 0 0 0 0 0 0 0 5765 5713 5713 5661 5661 5661 5661 5661 5661 5713 5713 5713 5713 5713 5765 5765 5818 5818 5873 5873 5928 5928 5928 5928 5928 5928 5928 5928 5928 5985 6101 6161 6222 6222 6222 6284 6284 6284 6347 6347 6412 6412 6412 6478 6546 6685 6757 6830 6830 6830 6757 6757 6830 6982 7061 7061 6982 6982 6905 6905 6905 6905 6905 6905 6905 6905 6830 6830 6830 6830 6757 6757 6757 6757 6757 6757 6757 6757 6830 6830 6830 6830 6830 6757 6757 6757 6757 6757 6757 6685 6685 6685 6685 6685 0 0 0 0 0 0 0 0 0 0 0 0 0 0 0 0 0 0 0 0 0 0 0 0 0 0 0 0 0 0 0 0 0 0 0 0 0 0 0 0 0 0 0 0 0 0 0 0 0 0 0 0 0 0 0 0 0 0 0 0 0 0 0 0 0 0 0 0 0 0 0 0 0 0 0 0 0 0 0 0 0 0 0 0 0 0 0 0 0 0 0 0 0 0 0 0 0 0 0 0 0 0 0 0 0 0 0 0 0 0 0 0 0 0 0 0 0 0 0 0 0 0 0 0 0 0 0 9521 9521 9521 9521 9521 9521 9521 9379 9379 9379 9107 8608 8608 8608 8608 8608 8492 8379 8492 8492 8492 8492 8977 9379 9379 9379 9379 0 0 0 0 0 0 0 0 0 0 0 8728 8728 8728 8608 8608 8608 8492 8492 8492 8379 8379 8379 8379 8379 8379 8379 8492 8492 8492 8492 8492 8492 8492 8492 8492 8608 8608 8608 8608 8608 8608 8608 8492 8268 8379 8492 8492 8608 8608 8608 8728 8728 8851 8851 8977 8977 8851 8851 8851 8851 8851 8728 8728 8728 8728 8728 8608 8608 8608 8608 8608 8728 8728 8728 8728 8728 8728 8728 8728 8608 8608 8608 8728 8851 8851 8977 8977 8851 8728 8728 8608 8608 8608 8608 8608 8728 8851 8851 8977 8977 8977 8977 8977 8977 8977 8977 8977 8851 8851 8851 8851 8728
    0 0 0 0 0 0 0 0 0 0 0 0 0 0 0 0 0 0 0 0 0 0 0 0 0 0 0 0 0 0 0 0 0 0 0 0 0 0 0 0 0 0 0 0 0 0 0 0 0 0 0 0 0 0 0 0 0 0 0 0 0 0 0 0 0 0 0 0 0 0 0 0 0 0 0 0 0 0 0 0 0 0 0 0 0 0 0 0 0 0 0 0 0 0 0 0 0 0 0 0 0 0 0 0 0 0 0 0 0 0 0 0 0 0 0 0 0 0 0 0 0 0 0 0 0 0 0 0 0 0 0 0 0 0 0 0 0 0 0 0 0 0 0 0 0 0 0 0 0 0 0 0 0 0 0 0 0 0 8492 8492 8492 8492 8492 8492 8492 8379 8379 8379 8379 8379 8379 8379 8379 8379 8379 8379 8379 8379 8379 8379 8379 8379 8492 8492 8492 8492 8492 8492 8492 8492 8492 8492 8492 8492 8492 8492 8379 8379 0 0 8977 8728 8728 8608 8608 8608 8608 8492 8492 8492 8492 8492 8379 8379 0 0 0 9521 9521 9521 9521 9521 9521 9521 9521 9521 9521 9521 9521 9521 9521 9521 9521 9521 9521 9521 9521 9521 9521 9668 9668 9668 9668 9668 9668 9668 9668 9668 9668 9668 9521 9521 9521 0 0 0 0 0 0 0 0 0 0 0 0 0 0 0 0 0 0 0 0 0 0 0 0 0 0 5765 5713 5713 5713 5713 5713 5661 5661 5713 5713 5713 5713 5713 5713 5765 5765 5765 5818 5873 5873 5928 5928 5928 5928 5928 5928 5928 5928 5928 6042 6101 6222 6222 6284 6284 6284 6284 6347 6347 6347 6412 6412 6412 6478 6615 6685 6685 6757 6757 6757 6757 6757 6685 6830 6982 6982 6982 6905 6905 6905 6905 6905 6905 6905 6905 6905 6830 6830 6830 6830 6757 6757 6830 6830 6830 6830 6830 6830 6830 6830 6830 6830 6830 6757 6757 6757 6757 6757 6757 6685 6685 6685 6685 6685 0 0 0 0 0 0 0 0 0 0 0 0 0 0 0 0 0 0 0 0 0 0 0 0 0 0 0 0 0 0 0 0 0 0 0 0 0 0 0 0 0 0 0 0 0 0 0 0 0 0 0 0 0 0 0 0 0 0 0 0 0 0 0 0 0 0 0 0 0 0 0 0 0 0 0 0 0 0 0 0 0 0 0 0 0 0 0 0 0 0 0 0 0 0 0 0 0 0 0 0 0 0 0 0 0 0 0 0 0 0 0 0 0 0 0 0 0 0 0 0 0 0 0 9107 9107 9107 9379 9521 9521 9521 9521 9521 9521 9521 9379 9379 9241 8977 8728 8728 8608 8608 8608 8492 8379 8379 8379 8268 8268 8492 8728 8851 8977 9379 0 8379 8379 8379 8379 8379 0 0 8608 8492 8492 8492 8492 8492 8492 8492 8492 8492 8492 8379 8379 8379 8379 8268 8268 8268 8379 8379 8379 8492 8492 8492 8492 8492 8492 8492 8492 8608 8608 8608 8608 8608 8608 8492 8379 8492 8492 8492 8492 8608 8608 8728 8728 8851 8851 8851 8851 8851 8851 8851 8728 8728 8728 8728 8728 8728 8608 8608 8608 8608 8608 8608 8608 8608 8608 8608 8608 8608 8608 8608 8608 8492 8608 8608 8728 8851 8851 8851 8851 8728 8728 8728 8608 8608 8608 8728 8728 8851 8851 8851 8977 8977 8977 8977 8977 8977 8851 8851 8851 8851 8851 8851 8728
    0 0 0 0 0 0 0 0 0 0 0 0 0 0 0 0 0 0 0 0 0 0 0 0 0 0 0 0 0 0 0 0 0 0 0 0 0 0 0 0 0 0 0 0 0 0 0 0 0 0 0 0 0 0 0 0 0 0 0 0 0 0 0 0 0 0 0 0 0 0 0 0 0 0 0 0 0 0 0 0 0 0 0 0 0 0 0 0 0 0 0 0 0 0 0 0 0 0 0 0 0 0 0 0 0 0 0 0 0 0 0 0 0 0 0 0 0 0 0 0 0 0 0 0 0 0 0 0 0 0 0 0 0 0 0 0 0 0 0 0 0 0 0 0 0 0 0 0 0 0 0 0 0 0 0 0 0 0 8492 8492 8492 8492 8492 8492 8492 8379 8379 8379 8379 8379 8379 8379 8379 8379 8379 8379 8379 8379 8379 8379 8379 8379 8492 8492 8492 8492 8492 8492 8492 8492 8492 8492 8608 8492 8492 8492 8379 8379 7954 8492 8728 8728 8728 8728 8728 8608 8608 8608 8608 8608 8608 8608 8608 0 9379 9379 9379 9521 9521 9521 9521 9521 9521 9521 9521 9521 9521 9379 9379 9379 9521 9521 9521 9521 9521 9521 9521 9521 9668 9668 9668 9668 9668 9668 9668 9668 9668 9668 9668 9668 9521 9521 9521 0 0 0 0 0 0 0 0 0 0 0 0 0 0 0 0 0 0 0 0 0 0 0 0 0 0 5765 5765 5765 5713 5713 5713 5713 5713 5713 5713 5713 5713 5713 5713 5765 5765 5765 5818 5818 5873 5928 5928 5928 5928 5928 5928 5928 5985 6042 6161 6222 6284 6284 6284 6284 6284 6284 6347 6347 6347 6347 6412 6478 6478 6546 6615 6685 6685 6757 6757 6757 6757 6685 6685 6757 6830 6905 6905 6905 6905 6905 6905 6905 6905 6905 6905 6830 6830 6830 6830 6757 6830 6830 6830 6830 6830 6830 6830 6830 6830 6830 6830 6830 6757 6757 6757 6757 6757 6685 6685 6685 6685 6685 6685 0 0 0 0 0 0 0 0 0 0 0 0 0 0 0 0 0 0 0 0 0 0 0 0 0 0 0 0 0 0 0 0 0 0 0 0 0 0 0 0 0 0 0 0 0 0 0 0 0 0 0 0 0 0 0 0 0 0 0 0 0 0 0 0 0 0 0 0 0 0 0 0 0 0 0 0 0 0 0 0 0 0 0 0 0 0 0 0 0 0 0 0 0 0 0 0 0 0 0 0 0 0 0 0 0 0 0 0 0 0 0 0 0 0 0 0 0 0 0 0 8977 8977 8977 9107 9107 8977 9107 9107 9241 9241 9241 9241 9241 9241 9241 9241 9107 8851 8728 8608 8608 8608 8492 8492 8379 8379 8379 8268 8268 8268 8268 8379 8492 8851 8379 8379 8379 8379 8379 8379 8379 8379 8492 8492 8379 8379 8379 8379 8379 8379 8379 8379 8379 8379 8379 8268 8268 8268 8268 8268 8268 8268 8379 8492 8492 8492 8492 8492 8492 8492 8492 8492 8492 8492 8608 8608 8608 8608 8492 8492 8492 8492 8492 8608 8608 8728 8728 8851 8851 8851 8851 8851 8851 8851 8728 8728 8728 8728 8728 8728 8608 8608 8608 8608 8608 8608 8608 8608 8608 8608 8608 8608 8608 8492 8492 8492 8492 8608 8728 8728 8851 8851 8851 8728 8728 8728 8728 8728 8728 8728 8728 8728 8851 8851 8851 8977 8977 8977 8851 8851 8851 8851 8851 8851 8851 8728 8728
    0 0 0 0 0 0 0 0 0 0 0 0 0 0 0 0 0 0 0 0 0 0 0 0 0 0 0 0 0 0 0 0 0 0 0 0 0 0 0 0 0 0 0 0 0 0 0 0 0 0 0 0 0 0 0 0 0 0 0 0 0 0 0 0 0 0 0 0 0 0 0 0 0 0 0 0 0 0 0 0 0 0 0 0 0 0 0 0 0 0 0 0 0 0 0 0 0 0 0 0 0 0 0 0 0 0 0 0 0 0 0 0 0 0 0 0 0 0 0 0 0 0 0 0 0 0 0 0 0 0 0 0 0 0 0 0 0 0 0 0 0 0 0 0 0 0 0 0 0 0 0 0 0 0 0 0 0 0 8492 8492 8492 8492 8492 8492 8379 8379 8379 8379 8379 8379 8379 8379 8379 8379 8379 8379 8379 8379 8379 8379 8379 8379 8492 8492 8492 8492 8492 8492 8492 8492 8608 8608 8608 8608 8608 8492 8379 8268 7954 8161 8492 8608 8728 8728 8728 8728 8728 8608 8608 8608 8728 8728 8728 9379 9379 9379 9379 9521 9521 9521 9521 9521 9521 9521 9521 9521 9521 9379 9379 9379 9521 9521 9521 9521 9521 9521 9668 9668 9668 9668 9668 9668 9668 9668 9668 9668 9668 9668 9668 9521 9521 9521 9521 0 0 0 0 0 0 0 0 0 0 0 0 0 0 0 0 0 0 0 0 0 0 0 0 0 0 5765 5765 5765 5765 5713 5713 5713 5713 5713 5713 5713 5713 5713 5713 5713 5765 5765 5765 5818 5873 5928 5928 5928 5928 5985 5985 5985 6042 6101 6222 6284 6347 6284 6284 6284 6284 6284 6347 6347 6347 6412 6412 6478 6478 6546 6615 6685 6685 6685 6685 6685 6685 6685 6685 6685 6757 6757 6830 6830 6830 6830 6905 6905 6905 6905 6905 6830 6830 6830 6830 6757 6830 6830 6830 6830 6830 6830 6830 6830 6830 6830 6830 6757 6757 6757 6757 6757 6757 6685 6685 6685 6685 6685 6685 0 0 0 0 0 0 0 0 0 0 0 0 0 0 0 0 0 0 0 0 0 0 0 0 0 0 0 0 0 0 0 0 0 0 0 0 0 0 0 0 0 0 0 0 0 0 0 0 0 0 0 0 0 0 0 0 0 0 0 0 0 0 0 0 0 0 0 0 0 0 0 0 0 0 0 0 0 0 0 0 0 0 0 0 0 0 0 0 0 0 0 0 0 0 0 0 0 0 0 0 0 0 0 0 0 0 0 0 0 0 0 0 0 0 0 0 0 0 0 8977 8977 8977 8977 9107 8977 8977 8977 9107 9107 9107 9107 9107 9107 9107 9107 8977 8977 8851 8728 8608 8608 8608 8492 8492 8379 8379 8379 8268 8268 8161 8161 8161 8268 8379 8268 8379 8379 8379 8379 8379 8379 8379 8492 8379 8379 8379 8379 8379 8379 8379 8379 8379 8379 8379 8268 8268 8268 8268 8268 8268 8268 8268 8268 8379 8492 8492 8492 8492 8492 8492 8492 8492 8492 8492 8492 8492 8608 8608 8608 8492 8492 8492 8492 8608 8608 8728 8851 8851 8851 8851 8851 8851 8851 8851 8728 8728 8728 8728 8728 8728 8608 8608 8608 8608 8608 8608 8608 8608 8608 8608 8608 8492 8492 8492 8492 8492 8492 8608 8608 8728 8728 8851 8851 8728 8728 8728 8728 8728 8728 8728 8728 8728 8728 8851 8851 8851 8851 8851 8851 8851 8851 8851 8851 8851 8728 8728 8728
    0 0 0 0 0 0 0 0 0 0 0 0 0 0 0 0 0 0 0 0 0 0 0 0 0 0 0 0 0 0 0 0 0 0 0 0 0 0 0 0 0 0 0 0 0 0 0 0 0 0 0 0 0 0 0 0 0 0 0 0 0 0 0 0 0 0 0 0 0 0 0 0 0 0 0 0 0 0 0 0 0 0 0 0 0 0 0 0 0 0 0 0 0 0 0 0 0 0 0 0 0 0 0 0 0 0 0 0 0 0 0 0 0 0 0 0 0 0 0 0 0 0 0 0 0 0 0 0 0 0 0 0 0 0 0 0 0 0 0 0 0 0 0 0 0 0 0 0 0 0 0 0 0 0 0 0 0 0 8492 8492 8492 8492 8492 8492 8379 8379 8379 8379 8379 8379 8379 8379 8379 8379 8379 8379 8379 8379 8379 8379 8379 8379 8492 8492 8492 8492 8492 8492 8492 8492 8608 8608 8608 8608 8608 8608 8492 8268 8056 8161 8379 8492 8608 8728 8851 8728 8728 8728 8728 8728 8728 8728 8728 9379 9379 9379 9379 9521 9521 9521 9521 9521 9521 9521 9521 9521 9521 9379 9379 9379 9521 9521 9521 9521 9521 9668 9668 9668 9668 9668 9668 9668 9668 9668 9668 9668 9668 9521 9521 9521 9521 9521 9521 0 0 0 0 0 0 0 0 0 0 0 0 0 0 0 0 0 0 0 0 0 0 0 0 0 0 5765 5765 5765 5765 5765 5713 5713 5713 5713 5713 5713 5713 5713 5713 5713 5765 5765 5765 5818 5873 5873 5928 5928 5928 5985 5985 5985 6101 6222 6284 6347 6347 6347 6347 6347 6347 6284 6347 6347 6347 6412 6412 6478 6546 6546 6615 6615 6685 6685 6685 6685 6685 6685 6685 6685 6685 6685 6685 6685 0 0 6905 6905 6905 6905 6905 6830 6830 6830 6830 6757 6830 6830 6830 6830 6830 6830 6830 6830 6830 6830 6830 6757 6757 6757 6757 6757 6685 6685 6685 6685 6685 6685 0 0 0 0 0 0 0 0 0 0 0 0 0 0 0 0 0 0 0 0 0 0 0 0 0 0 0 0 0 0 0 0 0 0 0 0 0 0 0 0 0 0 0 0 0 0 0 0 0 0 0 0 0 0 0 0 0 0 0 0 0 8161 8161 8161 8161 8161 8161 0 0 0 0 0 0 0 0 0 0 0 0 8728 8728 8728 8728 8728 8728 8608 8608 0 0 0 0 0 0 0 0 0 0 0 0 0 0 0 0 0 0 0 0 0 0 0 0 0 0 0 0 0 0 0 0 9107 9107 9107 9107 8977 8977 8977 8977 8977 8977 8977 8977 8977 8977 8977 8977 8977 8851 8851 8728 8728 8608 8608 8608 8492 8492 8492 8379 8379 8268 8161 8161 8161 8161 8268 8379 8268 8268 8268 8268 8379 8379 8379 8379 8379 8379 8379 8379 8379 8379 8379 8379 8379 8379 8379 8268 8268 8268 8268 8268 8268 8268 8268 8268 8268 8379 8492 8492 8492 8492 8492 8492 8492 8492 8492 8379 8492 8608 8728 8608 8608 8608 8608 8492 8608 8608 8608 8728 8851 8851 8851 8851 8851 8851 8851 8851 8728 8728 8728 8728 8728 8728 8608 8608 8608 8608 8608 8608 8608 8608 8608 8608 8608 8492 8492 8492 8492 8492 8492 8608 8608 8728 8728 8851 8728 8728 8728 8728 8728 8728 8728 8728 8728 8728 8728 8851 8851 8851 8851 8851 8851 8851 8851 8728 8728 8728 8728 8728 8728
    0 0 0 0 0 0 0 0 0 0 0 0 0 0 0 0 0 0 0 0 0 0 0 0 0 0 0 0 0 0 0 0 0 0 0 0 0 0 0 0 0 0 0 0 0 0 0 0 0 0 0 0 0 0 0 0 0 0 0 0 0 0 0 0 0 0 0 0 0 0 0 0 0 0 0 0 0 0 0 0 0 0 0 0 0 0 0 0 0 0 0 0 0 0 0 0 0 0 0 0 0 0 0 0 0 0 0 0 0 0 0 0 0 0 0 0 0 0 0 0 0 0 0 0 0 0 0 0 0 0 0 0 0 0 0 0 0 0 0 0 0 0 0 0 0 0 0 0 0 0 0 0 0 0 0 0 0 0 8492 8492 8492 8492 8492 8379 8379 8379 8379 8379 8379 8379 8379 8379 8379 8379 8379 8379 8379 8379 8379 8379 8379 8379 8492 8492 8492 8492 8492 8379 8492 8492 8492 8608 8608 8608 8608 8608 8492 8379 8161 8161 8268 8379 8608 8728 8851 8851 8851 8851 8728 8728 8728 8728 8977 9379 9379 9379 9379 9521 9521 9521 9521 9521 9521 9521 9521 9521 9521 9379 9379 9379 9521 9521 9521 9521 9521 9668 9668 9668 9668 9668 9668 9668 9668 9668 9668 9668 9521 9521 9521 9521 9521 9521 9521 0 0 0 0 0 0 0 0 0 0 0 0 0 0 0 0 0 0 0 0 0 0 0 0 0 0 0 5765 5765 5765 5765 5765 5765 5765 5765 5765 5765 5713 5713 5713 5765 5765 5765 5765 5818 5873 5873 5928 5928 5985 5985 5985 6042 6161 6222 6347 6347 6347 6347 6347 6347 6347 6347 6347 6347 6347 6412 6412 6478 6546 6546 6615 6615 6685 6685 6685 6685 6685 6685 6685 6685 6685 6685 6685 6685 6685 0 6905 6905 6905 6905 6905 6905 6830 6830 6830 6830 6830 6830 6830 6830 6830 6830 6830 6830 6830 6830 6830 6757 6757 6757 6757 6757 6685 6685 6685 6685 6685 6685 6685 0 0 0 0 0 0 0 0 0 0 0 0 0 0 0 0 0 0 0 0 0 0 0 0 0 0 0 0 0 0 0 0 0 0 0 0 0 0 0 0 0 0 0 0 0 0 0 0 8161 8161 8268 8268 8268 8268 8379 0 0 0 0 8268 8268 8268 8268 8268 8268 8268 8379 8379 8379 0 0 0 0 0 0 0 0 8728 8728 8728 8728 8728 8728 8728 8608 8608 8492 8492 8379 0 0 0 0 0 0 0 0 0 0 0 0 0 0 0 0 0 0 0 0 0 0 0 0 0 0 0 0 0 9107 9107 9107 8977 8977 8977 8977 8977 8977 8977 8851 8851 8851 8851 8851 8851 8851 8851 8728 8728 8728 8608 8608 8608 8492 8492 8492 8379 8379 8268 8161 8161 8161 8268 8268 8268 8268 8268 8268 8268 8268 8379 8379 8379 8379 8379 8379 8379 8379 8379 8379 8379 8268 8268 8268 8268 8268 8268 8268 8268 8268 8268 8268 8268 8379 8379 8492 8492 8492 8492 8492 8492 8379 8379 8379 8379 8492 8608 8728 8608 8608 8608 8608 8608 8608 8608 8728 8728 8851 8851 8851 8851 8851 8851 8851 8851 8728 8728 8728 8728 8728 8728 8608 8608 8608 8608 8608 8608 8608 8608 8608 8608 8608 8492 8492 8492 8492 8492 8492 8608 8608 8728 8728 8728 8728 8728 8728 8728 8728 8728 8728 8728 8728 8728 8728 8728 8851 8851 8851 8851 8851 8851 8728 8728 8728 8728 8728 8728 8728
    0 0 0 0 0 0 0 0 0 0 0 0 0 0 0 0 0 0 0 0 0 0 0 0 0 0 0 0 0 0 0 0 0 0 0 0 0 0 0 0 0 0 0 0 0 0 0 0 0 0 0 0 0 0 0 0 0 0 0 0 0 0 0 0 0 0 0 0 0 0 0 0 0 0 0 0 0 0 0 0 0 0 0 0 0 0 0 0 0 0 0 0 0 0 0 0 0 0 0 0 0 0 0 0 0 0 0 0 0 0 0 0 0 0 0 0 0 0 0 0 0 0 0 0 0 0 0 0 0 0 0 0 0 0 0 0 0 0 0 0 0 0 0 0 0 0 0 0 0 0 0 0 0 0 0 0 0 0 8492 8492 8492 8492 8492 8379 8379 8379 8379 8379 8379 8379 8379 8379 8379 8379 8379 8379 8379 8379 8379 8379 8379 8379 8379 8379 8379 8379 8379 8379 8492 8492 8492 8608 8608 8608 8608 8492 8492 8379 8268 8161 8268 8379 8492 8728 8851 8851 8851 8851 8851 8851 8851 8851 9107 9379 9379 9379 9379 9521 9521 9521 9521 9521 9521 9521 9521 9521 9379 9379 9379 9379 9521 9521 9521 9521 9521 9668 9668 9668 9668 9668 9668 9668 9668 9668 9668 9668 9521 9521 9521 9521 9521 9521 9521 0 0 0 0 0 0 0 0 0 0 0 0 0 0 0 0 0 0 0 0 0 0 0 0 0 0 0 0 5765 5765 5765 5765 5765 5765 5765 5765 5765 5713 5713 5713 5765 5765 5765 5818 5818 5873 5928 5928 5985 5985 5985 6042 6101 6161 6222 6347 6347 6347 6347 6347 6347 6347 6347 6347 6347 6347 6412 6478 6478 6546 6615 6615 6615 6685 6685 6685 6685 6685 6685 6685 6685 6757 6757 6757 6757 6757 6757 6905 6905 6905 6905 6905 6905 6830 6830 6830 6830 6830 6830 6830 6830 6830 6830 6830 6830 6830 6830 6757 6757 6757 6757 6757 6757 6757 6757 6757 6757 6685 6685 6685 0 0 0 0 0 0 0 0 0 0 0 0 0 0 0 0 0 0 0 0 0 0 0 0 0 0 0 0 0 0 0 0 0 0 0 0 0 0 0 0 0 0 0 0 0 0 0 0 8161 8161 8161 8161 8161 8161 8268 0 0 0 0 8379 8268 8268 8268 8268 8268 8379 8379 8379 8379 8379 0 0 0 0 0 0 0 8728 8728 8728 8728 8728 8728 8608 8608 8492 8492 8492 8379 8379 0 0 0 0 0 0 8492 8492 8608 8608 8608 8608 8608 8608 8608 8492 8492 8492 8379 8379 0 0 0 0 0 0 0 0 9107 9107 9107 8977 8977 8977 8977 8851 8851 8851 8851 8728 8728 8728 8728 8728 8728 8728 8728 8728 8728 8608 8608 8608 8608 8492 8492 8379 8379 8268 8161 8056 8161 8161 8268 8268 8268 8268 8268 8268 8268 8268 8379 8379 8379 8379 8379 8379 8379 8379 8379 8379 8268 8268 8268 8268 8268 8268 8268 8268 8268 8268 8268 8268 8379 8379 8492 8492 8492 8492 8492 8492 8379 8379 8379 8379 8492 8608 8728 8728 8728 8608 8608 8608 8608 8608 8728 8728 8728 8851 8851 8851 8851 8851 8851 8851 8728 8728 8728 8728 8728 8728 8608 8608 8608 8608 8728 8728 8728 8608 8608 8608 8608 8608 8608 8608 8608 8608 8608 8608 8728 8728 8728 8728 8728 8728 8728 8728 8728 8728 8728 8728 8728 8728 8728 8728 8851 8851 8851 8851 8851 8728 8728 8728 8728 8728 8728 8728 8728
    0 0 0 0 0 0 0 0 0 0 0 0 0 0 0 0 0 0 0 0 0 0 0 0 0 0 0 0 0 0 0 0 0 0 0 0 0 0 0 0 0 0 0 0 0 0 0 0 0 0 0 0 0 0 0 0 0 0 0 0 0 0 0 0 0 0 0 0 0 0 0 0 0 0 0 0 0 0 0 0 0 0 0 0 0 0 0 0 0 0 0 0 0 0 0 0 0 0 0 0 0 0 0 0 0 0 0 0 0 0 0 0 0 0 0 0 0 0 0 0 0 0 0 0 0 0 0 0 0 0 0 0 0 0 0 0 0 0 0 0 0 0 0 0 0 0 0 0 0 0 0 0 0 0 0 0 0 0 8492 8492 8492 8492 8492 8379 8379 8379 8379 8379 8379 8379 8379 8379 8379 8379 8379 8379 8379 8379 8379 8379 8379 8379 8379 8379 8379 8379 8379 8379 8379 8492 8492 8492 8608 8608 8608 8492 8492 8379 8268 8161 8161 8268 8379 8608 8851 8977 8977 8977 8977 8977 8977 9107 9241 9379 9379 9379 9379 9379 9379 9521 9521 9521 9521 9521 9521 9521 9521 9521 9521 9521 9521 9521 9521 9521 9521 9668 9668 9668 9668 9668 9668 9668 9668 9668 9668 9521 9521 9521 9521 9521 9521 9379 9379 0 0 0 0 0 0 0 0 0 0 0 0 0 0 0 0 0 0 0 0 0 0 0 0 0 0 0 0 0 5765 5765 5765 5765 5765 5765 5765 5765 5713 5713 5713 5765 5765 5765 5818 5873 5928 5928 5985 5985 5985 6042 6042 6101 6161 6222 6284 6347 6347 6347 6347 6347 6347 6347 6347 6412 6412 6412 6478 6478 6546 6546 6615 6615 6685 6685 6685 6685 6685 6757 6757 6757 6757 6757 6757 6757 6757 6830 6830 6905 6905 6905 6905 6905 6830 6830 6830 6830 6830 6830 6830 6830 6830 6830 6830 6830 6830 6757 6757 6757 6757 6757 6757 6757 6757 6757 6757 6757 6685 6685 6685 6685 0 0 0 0 0 0 0 0 0 0 0 0 0 0 0 0 0 0 0 0 0 0 0 0 0 0 0 0 0 0 0 0 0 0 0 0 0 0 0 0 0 0 0 0 0 0 0 8161 8161 8161 8161 8161 8161 8161 8056 8056 8056 8056 8379 8379 8379 8379 8379 8379 8379 8379 8379 8379 8379 0 0 0 0 0 0 0 8851 8851 8728 8728 8728 8728 8608 8608 8608 8492 8492 8492 8492 8379 8379 8379 8379 8492 8492 8492 8492 8608 8608 8608 8608 8608 8608 8608 8492 8492 8492 8379 8379 8379 0 0 0 0 0 0 0 9107 9107 8977 8977 8977 8977 8851 8851 8851 8851 8728 8728 8728 8728 8728 8728 8728 8728 8728 8728 8608 8608 8608 8608 8608 8492 8492 8492 8379 8268 8268 8379 8379 8379 8379 8268 8268 8268 8268 8268 8268 8268 8268 8379 8379 8379 8379 8379 8379 8379 8379 8379 8268 8268 8268 8268 8268 8268 8268 8268 8268 8268 8268 8379 8379 8379 8379 8492 8492 8492 8379 8379 8379 8379 8379 8379 8608 8608 8728 8728 8728 8608 8608 8608 8608 8728 8728 8728 8728 8728 8851 8851 8851 8851 8851 8728 8728 8728 8728 8728 8728 8608 8608 8608 8728 8728 8728 8728 8728 8728 8608 8608 8608 8608 8608 8608 8608 8608 8608 8728 8728 8728 8728 8851 8851 8728 8728 8728 8728 8728 8728 8728 8728 8728 8728 8728 8728 8728 8728 8728 8728 8851 8851 8851 8851 8728 8728 8728 8728
    0 0 0 0 0 0 0 0 0 0 0 0 0 0 0 0 0 0 0 0 0 0 0 0 0 0 0 0 0 0 0 0 0 0 0 0 0 0 0 0 0 0 0 0 0 0 0 0 0 0 0 0 0 0 0 0 0 0 0 0 0 0 0 0 0 0 0 0 0 0 0 0 0 0 0 0 0 0 0 0 0 0 0 0 0 0 0 0 0 0 0 0 0 0 0 0 0 0 0 0 0 0 0 0 0 0 0 0 0 0 0 0 0 0 0 0 0 0 0 0 0 0 0 0 0 0 0 0 0 0 0 0 0 0 0 0 0 0 0 0 0 0 0 0 0 0 0 0 0 0 0 0 0 0 0 0 0 0 8492 8492 8492 8492 8492 8379 8379 8379 8379 8379 8379 8379 8379 8379 8379 8379 8379 8379 8379 8379 8379 8379 8379 8379 8379 8379 8379 8379 8379 8379 8379 8492 8492 8492 8608 8608 8492 8492 8492 8379 8268 8268 8268 8379 8492 8728 8851 8977 8977 8977 8977 8977 9107 9107 9241 9379 9379 9379 9379 9379 9379 9379 9379 9379 9379 9521 9521 9521 9521 9521 9521 9521 9521 9521 9521 9521 9521 9668 9668 9668 9668 9668 9668 9668 9668 9668 9668 9521 9521 9521 9521 9521 9521 9521 9379 0 0 0 0 0 0 0 0 0 0 0 0 0 0 0 0 0 0 0 0 0 0 0 0 0 0 0 0 0 0 5765 5765 5765 5765 5765 5765 5765 5713 5713 5713 5765 5765 5765 5818 5873 5928 5985 5985 6042 6042 6042 6101 6101 6161 6222 6284 6347 6347 6347 6347 6347 6347 6412 6412 6412 6412 6478 6478 6478 6546 6546 6615 6615 6615 6685 6685 6685 6757 6757 6757 6757 6757 6757 6757 6757 6830 6830 6830 6830 6830 6830 6830 6830 6830 6830 6830 6830 6830 6830 6830 6830 6830 6830 6830 6830 6757 6757 6757 6757 6757 6757 6757 6757 6757 6757 6757 6685 6685 6685 6685 6685 0 0 0 0 0 0 0 0 0 0 0 0 0 0 0 0 0 0 0 0 0 0 0 0 0 0 0 0 0 0 0 0 0 0 0 0 0 0 0 0 0 0 0 0 0 8056 8056 8161 8161 8161 8161 8161 8161 8056 8056 8056 8056 8056 8268 8379 8379 8379 8379 8379 8379 8379 8492 8492 8492 8492 0 0 0 0 0 0 8851 8851 8728 8728 8728 8728 8608 8608 8608 8492 8492 8492 8492 8379 8379 8492 8492 8492 8492 8492 8492 8608 8608 8608 8608 8608 8608 8608 8492 8492 8492 8379 8379 8379 0 0 0 0 0 0 0 9107 9107 8977 8977 8977 8851 8851 8728 8728 8728 8728 8728 8728 8728 8728 8728 8728 8728 8728 8728 8728 8608 8608 8608 8608 8608 8492 8492 8379 0 0 8492 8492 8379 8379 8379 8268 8268 8268 8268 8268 8268 8268 8268 8268 8379 8379 8379 8379 8379 8379 8379 8268 8268 8268 8268 8268 8268 8268 8268 8268 8268 8268 8379 8379 8379 8379 8379 8379 8379 8379 8268 8268 8268 8268 8379 8608 8608 8608 8608 8728 8728 8728 8728 8728 8728 8728 8728 8728 8728 8728 8728 8851 8728 8728 8728 8728 8608 8608 8608 8608 8608 8608 8608 8728 8728 8728 8728 8728 8728 8728 8608 8608 8608 8608 8608 8608 8608 8608 8728 8728 8728 8728 8851 8851 8728 8728 8728 8728 8728 8728 8728 8728 8728 8728 8728 8728 8728 8728 8728 8728 8728 8851 8851 8851 8728 8728 8728 8728
    0 0 0 0 0 0 0 0 0 0 0 0 0 0 0 0 0 0 0 0 0 0 0 0 0 0 0 0 0 0 0 0 0 0 0 0 0 0 0 0 0 0 0 0 0 0 0 0 0 0 0 0 0 0 0 0 0 0 0 0 0 0 0 0 0 0 0 0 0 0 0 0 0 0 0 0 0 0 0 0 0 0 0 0 0 0 0 0 0 0 0 0 0 0 0 0 0 0 0 0 0 0 0 0 0 0 0 0 0 0 0 0 0 0 0 0 0 0 0 0 0 0 0 0 0 0 0 0 0 0 0 0 0 0 0 0 0 0 0 0 0 0 0 0 0 0 0 0 0 0 0 0 0 0 0 0 0 0 8492 8492 8492 8492 8492 8379 8379 8379 8379 8379 8379 8379 8379 8379 8379 8379 8379 8379 8379 8379 8379 8379 8379 8379 8379 8379 8379 8379 8379 8379 8379 8379 8492 8492 8608 8608 8492 8492 8492 8379 8379 8268 8268 8379 8492 8728 8851 8977 8977 8977 9107 9107 9241 9241 9379 9379 9379 9379 9379 9379 9379 9379 9379 9379 9521 9521 9521 9521 9521 9521 9521 9521 9521 9521 9521 9521 9521 9668 9668 9668 9668 9668 9668 9668 9668 9668 9668 9521 9521 9521 9521 9521 9521 9521 9379 0 0 0 0 0 0 0 0 0 0 0 0 0 0 0 0 0 0 0 0 0 0 0 0 0 0 0 0 0 0 0 5765 5765 5765 5765 5765 5765 5713 5713 5713 5765 5765 5818 5873 5928 5985 6042 6042 6042 6042 6101 6101 6161 6161 6222 6284 6347 6347 6347 6347 6412 6412 6412 6412 6478 6478 6478 6478 6478 6546 6546 6615 6615 6685 6685 6685 6685 6757 6757 6757 6757 6757 6757 6757 6830 6830 6830 6830 6905 6905 6905 6905 6830 6830 6830 6830 6830 6830 6830 6830 6830 6830 6830 6830 6830 6757 6757 6757 6757 6757 6757 6757 6757 6757 6685 6685 6685 6685 6685 6685 6685 0 0 0 0 0 0 0 0 0 0 0 0 0 0 0 0 0 0 0 0 0 0 0 0 0 0 0 0 0 0 0 0 0 0 0 0 0 0 0 0 0 0 0 0 0 8056 8056 8161 8161 8161 8161 8056 8056 8056 8056 8056 8056 8056 8268 8379 8379 8379 8379 8379 8379 8492 8492 8492 8492 8492 8492 8492 8492 0 0 0 8851 8851 8728 8728 8728 8728 8728 8608 8608 8608 8608 8492 8608 8379 8492 8608 8608 8608 8608 8608 8608 8608 8608 8608 8608 8608 8608 8608 8492 8492 8492 8492 8379 8379 0 0 0 0 0 0 0 9107 9107 8977 8977 8851 8728 8728 8728 8728 8728 8728 8728 8728 8728 8728 8728 8728 8728 8728 8728 8728 8728 8728 8728 8728 8608 8608 0 0 0 0 8608 8492 8492 8379 8379 8268 8268 8268 8268 8268 8268 8268 8268 8268 8268 8379 8379 8379 8379 8379 8379 8268 8268 8268 8268 8268 8268 8268 8268 8268 8268 8268 8268 8268 8268 8268 8268 8268 8268 8268 8268 8161 8161 8268 8379 8492 8492 8608 8608 8608 8608 8728 8728 8728 8728 8728 8728 8728 8728 8728 8728 8728 8728 8728 8608 8608 8608 8608 8608 8608 8608 8608 8608 8608 8728 8728 8728 8728 8728 8728 8608 8608 8608 8608 8608 8608 8608 8608 8608 8728 8728 8728 8851 8851 8728 8728 8728 8728 8728 8728 8728 8728 8728 8728 8728 8728 8728 8728 8728 8728 8728 8851 8851 8851 8851 8728 8728 8728
    0 0 0 0 0 0 0 0 0 0 0 0 0 0 0 0 0 0 0 0 0 0 0 0 0 0 0 0 0 0 0 0 0 0 0 0 0 0 0 0 0 0 0 0 0 0 0 0 0 0 0 0 0 0 0 0 0 0 0 0 0 0 0 0 0 0 0 0 0 0 0 0 0 0 0 0 0 0 0 0 0 0 0 0 0 0 0 0 0 0 0 0 0 0 0 0 0 0 0 0 0 0 0 0 0 0 0 0 0 0 0 0 0 0 0 0 0 0 0 0 0 0 0 0 0 0 0 0 0 0 0 0 0 0 0 0 0 0 0 0 0 0 0 0 0 0 0 0 0 0 0 0 0 0 0 0 0 0 8492 8492 8492 8492 8492 8379 8379 8379 8379 8379 8379 8379 8379 8379 8379 8379 8379 8379 8379 8379 8379 8379 8379 8379 8379 8379 8379 8379 8379 8379 8379 8379 8379 8492 8492 8492 8492 8492 8492 8379 8379 8379 8379 8492 8608 8728 8851 8977 8977 9107 9107 9241 9241 9379 9379 9379 9379 9379 9379 9379 9379 9379 9379 9521 9521 9521 9521 9521 9521 9521 9521 9521 9521 9521 9521 9521 9668 9668 9668 9668 9668 9668 9668 9668 9668 9668 9668 9668 9521 9521 9521 9521 9521 9521 9379 0 0 0 0 0 0 0 0 0 0 0 0 0 0 0 0 0 0 0 0 0 0 0 0 0 0 0 0 0 0 0 0 0 0 5713 5713 5713 5713 5713 5713 5713 5713 0 6042 6042 6042 6042 6042 6042 6101 6101 6101 6161 6161 6222 6284 6284 6347 6347 6347 6412 6412 6478 6478 6478 6478 6478 6478 6478 6546 6546 6615 6615 6685 6685 6685 6757 6757 6757 6757 6757 6757 6757 6830 6830 6830 6830 6830 6905 6905 6905 6905 6905 6905 6905 6830 6830 6830 6830 6830 6830 6830 6830 6830 6830 6757 6757 6757 6757 6757 6757 6757 6757 6685 6685 6685 6685 6685 6685 6685 6685 0 0 0 0 0 0 0 0 0 0 0 0 0 0 0 0 0 0 0 0 0 0 0 0 0 0 0 0 0 0 0 0 0 0 0 0 0 0 0 0 0 0 0 0 8161 8161 8161 8161 8161 8056 8056 8056 8056 8056 8056 8056 8056 8056 8161 8379 8492 8492 8492 8492 8492 8492 8492 8492 8492 8492 8492 8492 8492 8492 0 0 8851 8851 8728 8728 8728 8728 8728 8728 8728 8608 8608 8608 8608 8379 8492 8608 8608 8608 8608 8608 8608 8608 8608 8608 8608 8608 8608 8608 8492 8492 8492 8492 8379 8379 0 0 0 0 0 0 0 9107 8977 8977 8851 8851 8728 8608 8608 8728 8728 8728 8851 8851 8728 8728 8728 8728 8728 8728 8728 8728 8728 8728 8728 8728 8608 0 0 0 0 0 8608 8608 8492 8379 8379 8268 8268 8268 8161 8268 8268 8268 8268 8268 8268 8268 8268 8268 8268 8379 8379 8268 8268 8268 8268 8268 8268 8268 8268 8268 8268 8268 8268 8268 8268 8268 8268 8268 8161 8161 8161 8161 8161 8268 8268 8492 8492 8492 8492 8608 8608 8608 8608 8608 8608 8608 8608 8728 8728 8728 8728 8728 8728 8608 8608 8608 8608 8608 8608 8608 8608 8608 8608 8608 8728 8728 8728 8728 8728 8608 8608 8608 8608 8608 8608 8608 8608 8608 8608 8728 8728 8728 8851 8728 8728 8728 8728 8728 8728 8728 8728 8728 8728 8728 8728 8728 8728 8728 8728 8728 8728 8728 8851 8851 8851 8728 8728 8728
    0 0 0 0 0 0 0 0 0 0 0 0 0 0 0 0 0 0 0 0 0 0 0 0 0 0 0 0 0 0 0 0 0 0 0 0 0 0 0 0 0 0 0 0 0 0 0 0 0 0 0 0 0 0 0 0 0 0 0 0 0 0 0 0 0 0 0 0 0 0 0 0 0 0 0 0 0 0 0 0 0 0 0 0 0 0 0 0 0 0 0 0 0 0 0 0 0 0 0 0 0 0 0 0 0 0 0 0 0 0 0 0 0 0 0 0 0 0 0 0 0 0 0 0 0 0 0 0 0 0 0 0 0 0 0 0 0 0 0 0 0 0 0 0 0 0 0 0 0 0 0 0 0 0 0 0 0 0 8492 8492 8492 8492 8492 8492 8379 8379 8492 8492 8492 8492 8492 8492 8379 8379 8379 8379 8379 8379 8379 8379 8379 8379 8379 8379 8379 8379 8379 8379 8492 8492 8492 8492 8608 8492 8492 8492 8492 8379 8379 8379 8492 8608 8728 8851 8851 8977 8977 9107 9241 9241 9379 9379 9379 9379 9379 9379 9379 9379 9379 9379 9521 9521 9521 9521 9521 9521 9521 9521 9521 9521 9521 9521 9668 9668 9668 9668 9668 9668 9668 9668 9668 9668 9668 9668 9668 9668 9668 9521 9521 9521 9521 9521 9379 0 0 0 0 0 0 0 0 0 0 0 0 0 0 0 0 0 0 0 0 0 0 0 0 0 0 0 0 0 0 0 0 0 0 0 5713 5713 5713 5713 5713 5713 0 0 6042 6042 6042 6042 6042 6101 6101 6101 6161 6161 6222 6222 6284 6284 6347 6347 6347 6412 6412 6478 6478 6478 6478 6478 6478 6546 6546 6546 6615 6615 6685 6685 6757 6757 6757 6757 6757 6757 6830 6830 6830 6830 6830 6830 6905 6905 6905 6905 6905 6905 6905 6905 6905 6905 6830 6830 6830 6905 6905 6905 6830 6830 6757 6757 6757 6757 6757 6757 6757 6685 6685 6685 6685 6685 6685 6685 6615 6615 0 0 0 0 0 0 0 0 0 0 0 0 0 0 0 0 0 0 0 0 0 0 0 0 0 0 0 0 0 0 8268 8268 8268 8268 8268 0 0 0 0 0 0 0 0 8268 8268 8161 8161 8161 8161 8056 8056 8056 8056 8056 7954 8056 8056 8056 8056 8379 8608 8608 8492 8492 8492 8492 8492 8492 8492 8492 8492 8492 8492 8492 0 0 8851 8851 8728 8851 8851 8851 8851 8851 8728 8728 8728 8728 8728 8379 8492 8608 8608 8728 8728 8728 8608 8608 8608 8728 8728 8728 8608 8608 8492 8492 8492 8492 8379 8379 0 0 0 0 0 0 0 8977 8977 8977 8851 8728 8728 8608 8608 8608 8728 8728 8851 8851 8728 8851 8851 8851 8851 8728 8728 8728 8728 8728 8851 8851 0 0 0 0 0 0 8608 8608 8492 8492 8379 8268 8268 8268 8161 8161 8161 8268 8268 8268 8268 8268 8268 8268 8268 8268 8268 8268 8268 8268 8268 8268 8268 8268 8268 8268 8268 8268 8268 8268 8268 8161 8161 8161 8161 8056 8056 8056 8056 8161 8268 8379 8492 8492 8492 8608 8608 8608 8608 8608 8608 8608 8608 8608 8728 8728 8728 8728 8728 8608 8608 8492 8492 8492 8492 8608 8608 8608 8608 8608 8608 8608 8608 8608 8608 8608 8608 8608 8608 8608 8608 8608 8608 8608 8608 8608 8728 8728 8851 8728 8728 8728 8728 8728 8728 8728 8728 8728 8728 8728 8728 8728 8728 8728 8728 8728 8728 8728 8728 8851 8851 8728 8728 8728
    0 0 0 0 0 0 0 0 0 0 0 0 0 0 0 0 0 0 0 0 0 0 0 0 0 0 0 0 0 0 0 0 0 0 0 0 0 0 0 0 0 0 0 0 0 0 0 0 0 0 0 0 0 0 0 0 0 0 0 0 0 0 0 0 0 0 0 0 0 0 0 0 0 0 0 0 0 0 0 0 0 0 0 0 0 0 0 0 0 0 0 0 0 0 0 0 0 0 0 0 0 0 0 0 0 0 0 0 0 0 0 0 0 0 0 0 0 0 0 0 0 0 0 0 0 0 0 0 0 0 0 0 0 0 0 0 0 0 0 0 0 0 0 0 0 0 0 0 0 0 0 0 0 0 0 0 0 0 8492 8492 8492 8492 8492 8492 8492 8492 8492 8492 8492 8492 8492 8492 8492 8379 8379 8379 8379 8379 8379 8379 8379 8379 8379 8379 8379 8379 8379 8379 8492 8492 8492 8492 8608 0 8492 8492 8492 8492 8379 8492 8728 8851 8851 8977 8977 8977 8977 9107 9379 9379 9379 9379 9379 9379 9379 9379 9379 9379 9379 9521 9521 9521 9521 9521 9521 9521 9521 9668 9668 9668 9668 9668 9668 9668 9668 9668 9668 9668 9668 9668 9668 9668 9668 9668 9668 9668 9668 9668 9521 9521 9521 9521 0 0 0 0 0 0 0 0 0 0 0 0 0 0 0 0 0 0 0 0 0 0 0 0 0 0 0 0 0 0 0 0 0 0 0 0 0 0 0 0 0 0 0 0 6042 6042 6042 6042 6042 6101 6101 6101 6161 6161 6222 6222 6284 6284 6284 6347 6347 6412 6412 6478 6478 6478 6546 6546 6546 6546 6546 6615 6615 6685 6685 6757 6757 6757 6757 6757 6757 6830 6830 6830 6830 6830 6830 6905 6905 6905 6905 6905 6905 6905 6905 6905 6905 6905 6905 6905 6905 6905 6905 6905 6905 6830 6757 6757 6757 6757 6757 6757 6757 6685 6685 6685 6685 6685 6615 6615 6615 6615 0 0 0 0 0 0 0 0 0 0 0 0 0 0 0 0 0 0 0 0 0 0 0 0 0 0 0 0 0 0 8268 8268 8379 8379 8379 8379 8379 8379 8379 8379 8379 8379 8379 8268 8268 8161 8161 8161 8056 8056 8056 7954 7954 7954 7954 7954 8056 8056 7954 8379 8608 8608 8608 8608 8492 8492 8492 8492 8492 8492 8492 8492 8492 8492 0 0 0 8728 8728 8851 8977 8977 8851 8851 8851 8851 8851 8851 8851 8728 8608 8608 8728 8728 8728 8728 8728 8728 8728 8728 8728 8728 8728 8608 8492 8492 8492 8492 8379 8379 0 0 0 0 0 0 0 8977 8977 8851 8851 8728 8608 8608 8608 8608 8728 8728 8851 8851 8851 8851 8851 8851 8851 8851 8851 8851 8851 8851 8851 8851 0 0 0 0 0 0 8608 8608 8492 8492 8379 8268 8268 8268 8161 8161 8161 8161 8161 8161 8161 8268 8268 8268 8268 8268 8268 8268 8268 8379 8379 8379 8379 8379 8379 8379 8379 8268 8268 8268 8268 8161 8161 8161 8161 8056 8056 8056 8056 8161 8268 8268 8379 8492 8492 8608 8608 8608 8608 8608 8608 8608 8608 8608 8728 8728 8728 8608 8608 8608 8608 8492 8492 8492 8492 8492 8492 8608 8608 8608 8608 8608 8608 8608 8608 8608 8608 8608 8608 8608 8608 8608 8608 8608 8608 8608 8608 8728 8728 8728 8728 8728 8728 8608 8608 8608 8608 8728 8728 8728 8728 8728 8728 8728 8728 8728 8728 8728 8728 8728 8851 8728 8728 8728
    0 0 0 0 0 0 0 0 0 0 0 0 0 0 0 0 0 0 0 0 0 0 0 0 0 0 0 0 0 0 0 0 0 0 0 0 0 0 0 0 0 0 0 0 0 0 0 0 0 0 0 0 0 0 0 0 0 0 0 0 0 0 0 0 0 0 0 0 0 0 0 0 0 0 0 0 0 0 0 0 0 0 0 0 0 0 0 0 0 0 0 0 0 0 0 0 0 0 0 0 0 0 0 0 0 0 0 0 0 0 0 0 0 0 0 0 0 0 0 0 0 0 0 0 0 0 0 0 0 0 0 0 0 0 0 0 0 0 0 0 0 0 0 0 0 0 0 0 0 0 0 0 0 0 0 0 0 0 8492 8492 8492 8492 8492 8492 8492 8492 8492 8492 8492 8492 8492 8492 8492 8379 8379 8379 8379 8379 8379 8379 8379 8379 8379 8379 8379 8379 8379 8379 8492 8492 8492 8492 8608 0 0 8379 8379 8379 8379 8379 8728 8851 8977 8977 8977 8977 8977 9241 9379 9379 9379 9379 9379 9379 9379 9379 9379 9379 9521 9521 9521 9521 9521 9521 9521 9521 9668 9668 9668 9668 9668 9668 9668 9668 9668 9668 9668 9668 9668 9819 9819 9668 9668 9668 9668 9668 9668 9668 9521 9521 9521 9521 0 0 0 0 0 0 0 0 0 0 0 0 0 0 0 0 0 0 0 0 0 0 0 0 0 0 0 0 0 0 0 0 0 0 0 0 0 0 0 0 0 0 0 0 6042 6042 6042 6042 6042 6101 6101 6161 6161 6161 6222 6222 6284 6284 6284 6347 6347 6347 6412 6478 6478 6478 6546 6546 6546 6546 6615 6615 6685 6685 6757 6757 6757 6757 6757 6757 6757 6830 6830 6830 6830 6830 6905 6905 6905 6905 6905 6905 6905 6905 6905 6905 6905 6905 6905 6905 6905 6982 6982 6982 6905 6905 6757 6757 6757 6757 6757 6757 6757 6685 6685 6685 6615 6615 6615 6615 6615 6615 0 0 0 0 0 0 0 0 0 0 0 0 0 0 0 0 0 0 0 0 0 0 0 0 0 8161 8161 8161 8161 8161 8268 8268 8379 8379 8379 8379 8492 8492 8492 8492 8492 8379 8379 8268 8268 8161 8161 8161 8056 8056 7954 7954 7954 7954 7954 7954 7954 7954 7954 8379 8728 8608 8608 8608 8608 8608 8608 8608 8608 8608 8608 8608 8608 8608 0 0 0 0 8728 8977 8977 8977 8977 8977 8977 8977 8977 8977 8977 8977 8851 8851 8851 8851 8851 8851 8851 8851 8851 8851 8851 8851 8728 8728 8608 8492 8492 8492 8379 0 0 0 0 0 0 0 0 8977 8977 8851 8728 8728 8608 8608 8608 8608 8728 8728 8851 8851 8851 8851 8851 8851 8851 8851 8851 8977 8977 8977 8977 8977 0 0 0 0 0 0 8728 8728 8492 8492 8379 8379 8268 8268 8268 8161 8161 8161 8161 8161 8161 8161 8161 8268 8268 8268 8268 8268 8268 8379 8379 8379 8379 8379 8379 8379 8379 8268 8268 8268 8268 8161 8161 8161 8161 8161 8161 8161 8161 8161 8161 8268 8379 8492 8492 8608 8608 8608 8608 8608 8608 8608 8608 8608 8728 8728 8728 8608 8608 8608 8608 8492 8492 8492 8492 8492 8492 8492 8608 8608 8608 8608 8608 8608 8608 8608 8608 8608 8608 8608 8608 8608 8608 8608 8608 8608 8608 8728 8728 8728 8728 8728 8728 8608 8608 8608 8608 8608 8608 8728 8728 8728 8728 8728 8728 8728 8728 8728 8728 8728 8851 8728 8728 8728
    0 0 0 0 0 0 0 0 0 0 0 0 0 0 0 0 0 0 0 0 0 0 0 0 0 0 0 0 0 0 0 0 0 0 0 0 0 0 0 0 0 0 0 0 0 0 0 0 0 0 0 0 0 0 0 0 0 0 0 0 0 0 0 0 0 0 0 0 0 0 0 0 0 0 0 0 0 0 0 0 0 0 0 0 0 0 0 0 0 0 0 0 0 0 0 0 0 0 0 0 0 0 0 0 0 0 0 0 0 0 0 0 0 0 0 0 0 0 0 0 0 0 0 0 0 0 0 0 0 0 0 0 0 0 0 0 0 0 0 0 0 0 0 0 0 0 0 0 0 0 0 0 0 0 0 0 0 0 8492 8492 8492 8492 8492 8492 8492 8492 8492 8492 8492 8492 8492 8492 8492 8379 8379 8379 8379 8379 8379 8379 8379 8379 8379 8379 8379 8379 8379 8379 8492 8492 8492 8492 8608 0 0 8379 8379 8379 8379 8379 8851 8977 8977 8977 8977 8977 9107 9241 9379 9379 9379 9379 9379 9379 9379 9379 9379 9379 9521 9521 9521 9521 9521 9521 9521 9521 9668 9668 9668 9668 9668 9668 9668 9668 9668 9668 9668 9668 9668 9819 9819 9819 9668 9668 9668 9668 9668 9668 9668 9668 9668 0 0 0 0 0 0 0 0 0 0 0 0 0 0 0 0 0 0 0 0 0 0 0 0 0 0 0 0 0 0 0 0 0 0 0 0 0 0 0 0 0 0 0 0 0 6042 6042 6042 6042 6042 6101 6101 6161 6161 6222 6222 6222 6222 6284 6284 6284 6347 6347 6412 6412 6478 6478 6546 6546 6546 6615 6615 6685 6685 6757 6757 6757 6757 6757 6757 6757 6830 6830 6830 6830 6830 6905 6905 6905 6905 6905 6905 6905 6905 6905 6905 6905 6905 6905 6905 6982 7061 7223 7307 7307 7307 7307 0 0 0 0 0 6685 6685 6685 6685 6685 6615 6615 6615 6615 6615 6615 0 0 0 0 0 0 0 0 0 0 0 0 0 0 0 0 0 0 0 0 0 0 0 0 8161 8161 8161 8161 8161 8161 8161 8268 8268 8268 8268 8379 8492 8492 8492 8492 8492 8379 8379 8268 8268 8161 8161 8056 8056 7954 7954 7954 7954 7954 7954 7954 7954 7954 7954 8492 8728 8728 8608 8608 8608 8608 8608 8608 8608 8608 8608 8608 8608 8728 8728 0 0 0 0 9107 9107 8977 8977 8977 8977 8977 8977 8977 8977 8977 8851 8851 8851 8977 8977 8977 8977 8977 8977 8851 8851 8851 8851 8728 8608 8608 8728 8728 8728 8728 8728 8728 0 0 0 0 0 8851 8851 8851 8728 8728 8608 8608 8608 8608 8728 8851 8851 8851 8851 8851 8851 8851 8977 8977 8977 8977 8977 8977 8977 8977 8851 8728 8728 8728 0 0 0 8728 8492 8379 8379 8379 8268 8268 8268 8161 8161 8161 8161 8161 8161 8161 8161 8161 8161 8268 8268 8268 8268 8379 8379 8379 8379 8379 8379 8379 8379 8268 8268 8268 8268 8161 8161 8161 8161 8161 8161 8161 8161 8161 8161 8268 8379 8379 8492 8608 8608 8608 8608 8492 8492 8492 8608 8608 8608 8608 8728 8728 8608 8608 8608 8608 8492 8492 8492 8492 8492 8492 8492 8492 8608 8608 8608 8608 8608 8608 8608 8608 8608 8608 8608 8608 8608 8608 8608 8608 8608 8608 8728 8728 8728 8728 8608 8608 8608 8608 8608 8608 8608 8728 8728 8728 8728 8728 8728 8728 8728 8728 8728 8728 8728 8728 8728 8728
    0 0 0 0 0 0 0 0 0 0 0 0 0 0 0 0 0 0 0 0 0 0 0 0 0 0 0 0 0 0 0 0 0 0 0 0 0 0 0 0 0 0 0 0 0 0 0 0 0 0 0 0 0 0 0 0 0 0 0 0 0 0 0 0 0 0 0 0 0 0 0 0 0 0 0 0 0 0 0 0 0 0 0 0 0 0 0 0 0 0 0 0 0 0 0 0 0 0 0 0 0 0 0 0 0 0 0 0 0 0 0 0 0 0 0 0 0 0 0 0 0 0 0 0 0 0 0 0 0 0 0 0 0 0 0 0 0 0 0 0 0 0 0 0 0 0 0 0 0 0 0 0 0 0 0 0 0 0 8492 8492 8492 8492 8492 8492 8492 8492 8492 8492 8492 8492 8492 8492 8492 8379 8379 8379 8379 8379 8379 8379 8379 8379 8379 8379 8379 8379 8379 8379 8492 8492 8492 8492 8608 0 0 8379 8379 8379 8379 8379 8851 8977 8977 8977 8977 9107 9241 9241 9379 9379 9379 9379 9379 9379 9379 9379 9379 9379 9521 9521 9521 9521 9521 9521 9521 9521 9668 9668 9668 9668 9668 9668 9668 9668 9668 9668 9668 9668 9668 9819 9819 9819 9819 9819 9668 9668 9668 9668 9668 9668 9668 9668 0 0 0 0 0 0 0 0 0 0 0 0 0 0 0 0 0 0 0 0 0 0 0 0 0 0 0 0 0 0 0 0 0 0 0 0 0 0 0 0 0 0 0 0 0 6042 6042 6042 6042 6042 6101 6161 6222 6222 6222 6222 6222 6284 6284 6284 6347 6347 6347 6412 6478 6478 6546 6546 6546 6615 6685 6685 6757 6757 6757 6757 6830 6830 6830 6830 6830 6830 6830 6830 6905 6905 6905 6905 6905 6905 6982 6982 6982 6982 6982 6905 6905 6905 6905 6905 6905 0 0 0 0 0 0 0 0 0 0 0 6685 6685 6685 6685 6615 6615 6615 6615 6615 6546 0 0 0 0 0 0 0 0 0 0 0 0 0 0 0 0 0 0 0 0 0 0 0 0 8161 8161 8161 8161 8161 8161 8161 8161 8268 8268 8268 8268 8379 8492 8492 8492 8492 8379 8379 8268 8268 8161 8056 8056 7954 7954 7954 7954 7954 7954 7954 7954 7954 7954 7954 8851 8728 8728 8728 8728 8608 8608 8608 8608 8608 8608 8608 8608 8728 8728 8728 8728 8728 8728 8728 9107 9107 9107 9107 9107 8977 8977 8977 8977 8977 8851 8851 8851 8977 9107 9107 9107 9107 8977 8977 8851 8851 8851 8851 8851 8851 8851 8851 8851 8851 8728 8728 8728 8728 0 0 0 0 0 8851 8851 8728 8608 8608 8608 8608 8728 8728 8851 8851 8851 8851 8851 8851 8851 8977 8977 8977 8977 8977 8977 8977 8977 8851 8851 8728 8728 0 0 0 0 8379 8379 8379 8379 8268 8268 8268 8161 8161 8161 8161 8056 8161 8161 8161 8161 8161 8161 8268 8268 8268 8379 8379 8379 8379 8379 8379 8379 8379 8268 8268 8268 8268 8268 8268 8268 8268 8268 8268 8268 8161 8161 8161 8161 8268 8379 8492 8608 8608 8608 8492 8492 8492 8492 8608 8608 8608 8608 8608 8608 8608 8608 8608 8608 8608 8608 8492 8492 8492 8492 8492 8492 8608 8608 8608 8608 8608 8608 8608 8608 8608 8608 8608 8608 8608 8608 8608 8608 8608 8608 8728 8728 8608 8608 8608 8608 8608 8608 8608 8608 8608 8608 8728 8728 8728 8728 8728 8728 8728 8728 8728 8728 8728 8728 8728 8728
    0 0 0 0 0 0 0 0 0 0 0 0 0 0 0 0 0 0 0 0 0 0 0 0 0 0 0 0 0 0 0 0 0 0 0 0 0 0 0 0 0 0 0 0 0 0 0 0 0 0 0 0 0 0 0 0 0 0 0 0 0 0 0 0 0 0 0 0 0 0 0 0 0 0 0 0 0 0 0 0 0 0 0 0 0 0 0 0 0 0 0 0 0 0 0 0 0 0 0 0 0 0 0 0 0 0 0 0 0 0 0 0 0 0 0 0 0 0 0 0 0 0 0 0 0 0 0 0 0 0 0 0 0 0 0 0 0 0 0 0 0 0 0 0 0 0 0 0 0 0 0 0 0 0 0 0 0 0 8492 8492 8492 8492 8492 8492 8492 8492 8492 8492 8492 8492 8492 8492 8492 8379 8379 8379 8379 8379 8379 8379 8379 8379 8379 8379 8379 8379 8379 8379 8492 8492 8492 8492 8608 0 9379 9379 9379 9379 9379 9379 9241 9107 9107 9107 9107 9241 9241 9379 9379 9379 9379 9379 9379 9379 9379 9379 9379 9379 9521 9521 9521 9521 9521 9521 9521 9521 9668 9668 9668 9668 9668 9668 9668 9668 9668 9668 9668 9668 9668 9819 9819 9819 9819 9819 9668 9668 9668 9668 9668 9668 9668 9668 0 0 0 0 0 0 0 0 0 0 0 0 0 0 0 0 0 0 0 0 0 0 0 0 0 0 0 0 0 0 0 0 0 0 0 0 0 0 0 0 0 0 0 0 0 0 0 0 0 0 6161 6222 6222 6222 6222 6222 6222 6284 6284 6284 6347 6347 6347 6412 6478 6478 6546 6546 6615 6615 6685 6685 6757 6757 6830 6830 6830 6830 6830 6830 6830 6830 6830 6905 6905 6905 6905 6905 6905 6982 6982 6982 6982 6982 6982 6982 6905 6905 6905 6905 6905 0 0 0 0 0 0 0 0 0 0 0 0 6615 6615 6615 6615 6615 6615 6615 6615 0 0 0 0 0 0 0 0 0 0 0 0 0 0 0 0 0 0 0 0 0 0 0 0 0 8161 8161 8161 8161 8161 8161 8161 8161 8161 8161 8268 8268 8379 8492 8492 8492 8492 8379 8379 8268 8268 8161 8056 8056 7954 7954 7954 7855 7855 7855 7954 7954 7954 7954 8268 8977 8851 8851 8851 8728 8728 8608 8608 8608 8608 8608 8608 8728 8728 8728 8851 8851 8851 8851 8851 9107 9107 9107 9107 9107 9107 8977 8977 8977 8977 8851 8851 8851 8977 8977 9107 9107 8977 8977 8851 8851 8851 8851 8851 8851 8851 8851 8851 8851 8851 8728 8728 8728 8728 0 0 0 0 0 0 8728 8728 8608 8608 8608 8608 8728 8851 8851 8977 8851 8851 8851 8728 8977 9107 9107 9107 9107 9107 8977 8977 8977 8851 8851 8728 8728 8608 0 0 8608 8492 8492 8379 8379 8379 8268 8268 8161 8161 8161 8056 8056 8056 8161 8161 8161 8161 8161 8268 8268 8268 8379 8379 8379 8379 8379 8379 8268 8268 8268 8268 8268 8268 8268 8268 8268 8268 8268 8268 8268 8268 8161 8161 8161 8268 8379 8492 8492 8608 8492 8492 8492 8492 8492 8492 8608 8608 8608 8608 8608 8608 8608 8608 8608 8608 8608 8492 8492 8492 8492 8492 8492 8608 8608 8608 8608 8608 8608 8608 8608 8608 8608 8608 8608 8608 8608 8608 8608 8608 8608 8608 8608 8608 8608 8608 8492 8492 8492 8492 8492 8608 8608 8608 8728 8728 8728 8728 8728 8728 8728 8728 8728 8728 8728 8728 8728
    0 0 0 0 0 0 0 0 0 0 0 0 0 0 0 0 0 0 0 0 0 0 0 0 0 0 0 0 0 0 0 0 0 0 0 0 0 0 0 0 0 0 0 0 0 0 0 0 0 0 0 0 0 0 0 0 0 0 0 0 0 0 0 0 0 0 0 0 0 0 0 0 0 0 0 0 0 0 0 0 0 0 0 0 0 0 0 0 0 0 0 0 0 0 0 0 0 0 0 0 0 0 0 0 0 0 0 0 0 0 0 0 0 0 0 0 0 0 0 0 0 0 0 0 0 0 0 0 0 0 0 0 0 0 0 0 0 0 0 0 0 0 0 0 0 0 0 0 0 0 0 0 0 0 0 0 0 0 8492 8492 8492 8492 8492 8492 8492 8492 8492 8492 8492 8492 8492 8492 8492 8492 8492 8492 8492 8492 8492 8492 8492 8492 8492 8492 8492 8492 8379 8379 8379 8379 8379 8379 0 9379 9379 9379 9379 9379 9379 9379 9379 9241 9241 9241 9241 9241 9379 9379 9379 9379 9379 9379 9379 9379 9379 9379 9379 9379 9521 9521 9521 9521 9521 9521 9521 9521 9668 9668 9668 9668 9668 9668 9668 9668 9668 9668 9668 9668 9668 9819 9819 9819 9819 9819 9668 9668 9668 9668 9668 9668 9668 9668 0 0 0 0 0 0 0 0 0 0 0 0 0 0 0 0 0 0 0 0 0 0 0 0 0 0 0 0 0 0 0 0 0 0 0 0 0 0 0 0 0 0 0 0 0 0 0 0 0 0 0 6222 6222 6222 6222 6222 6284 6284 6284 6284 6347 6347 6347 6412 6478 6478 6478 6546 6615 6615 6685 6757 6757 6830 6830 6830 6830 6830 6830 6830 6830 6830 6830 6905 6905 6905 6905 6905 6982 6982 6982 6982 6982 6982 6982 6982 6905 6905 6905 6905 0 0 0 0 0 0 0 0 0 0 0 0 0 0 0 0 0 0 0 0 0 0 0 0 0 0 0 0 0 0 0 0 0 0 0 0 0 0 0 0 0 0 0 0 0 0 8161 8161 8161 8161 8161 8161 8161 8161 8161 8161 8161 8161 8268 8492 8492 8492 8492 8379 8379 8379 8268 8161 8056 8056 7954 7954 7855 7954 7954 7954 7954 7954 7954 8161 8728 8977 8851 8851 8851 8851 8728 8728 8608 8608 8608 8728 8728 8728 8728 8728 8851 8851 8851 8851 8851 9107 9107 9107 9107 9107 9107 8977 8977 8977 8851 8851 8851 8851 8977 8977 8977 8977 8977 8977 8851 8851 8851 8851 8851 8851 8851 8851 8851 8851 8851 8728 8728 8728 8728 0 0 0 0 0 0 8728 8728 8608 8608 8608 8608 8728 8851 8977 8977 8977 8851 8851 8728 9107 9107 9107 9107 9107 9107 9107 8977 8977 8851 8851 8728 8728 8608 8608 8608 8608 8492 8492 8379 8379 8379 8268 8268 8161 8161 8161 8056 8056 8056 8056 8161 8161 8161 8161 8161 8268 8268 8268 8379 8379 8379 8268 8268 8268 8268 8268 8268 8268 8268 8268 8379 8379 8379 8379 8379 8268 8268 8268 8161 8161 8268 8268 8379 8492 8608 8492 8492 8492 8492 8492 8492 8492 8608 8608 8608 8608 8608 8608 8608 8608 8608 8608 8492 8492 8492 8492 8492 8492 8608 8608 8608 8608 8608 8608 8608 8608 8608 8608 8608 8608 8608 8608 8608 8608 8608 8608 8608 8608 8608 8608 8492 8492 8492 8492 8492 8492 8492 8608 8608 8608 8608 8728 8728 8608 8728 8728 8728 8728 8728 8728 8728 8728
    0 0 0 0 0 0 0 0 0 0 0 0 0 0 0 0 0 0 0 0 0 0 0 0 0 0 0 0 0 0 0 0 0 0 0 0 0 0 0 0 0 0 0 0 0 0 0 0 0 0 0 0 0 0 0 0 0 0 0 0 0 0 0 0 0 0 0 0 0 0 0 0 0 0 0 0 0 0 0 0 0 0 0 0 0 0 0 0 0 0 0 0 0 0 0 0 0 0 0 0 0 0 0 0 0 0 0 0 0 0 0 0 0 0 0 0 0 0 0 0 0 0 0 0 0 0 0 0 0 0 0 0 0 0 0 0 0 0 0 0 0 0 0 0 0 0 0 0 0 0 0 0 0 0 0 0 0 0 8492 8492 8492 8492 8492 8492 8492 8492 8492 8492 8492 8492 8492 8492 8492 8492 8492 8492 8492 8492 8492 8492 8492 8492 8492 8492 8492 8379 8379 8379 8379 8379 8379 9107 9107 9241 9379 9379 9379 9379 9379 9379 9379 9379 9379 9379 9379 9379 9379 9379 9379 9379 9379 9379 9379 9379 9379 9379 9379 9379 9521 9521 9521 9521 9521 9521 9521 9668 9668 9668 9668 9668 9668 9668 9668 9668 9668 9668 9668 9668 9668 9668 9668 9668 9668 9668 9668 9668 9668 9668 9668 9668 9668 9668 0 0 0 0 0 0 0 0 0 0 0 0 0 0 0 0 0 0 0 0 0 0 0 0 0 0 0 0 0 0 0 0 0 0 0 0 0 0 0 0 0 0 0 0 0 0 0 0 0 0 0 6222 6222 6222 6222 6222 6284 6284 6284 6284 6347 6347 6412 6412 6478 6478 6478 6546 6546 6615 6685 6757 6757 6830 6830 6830 6830 6830 6830 6830 6830 6830 6905 6905 6905 6905 6982 6982 6982 6982 6982 6982 7061 7061 7061 7061 7141 0 0 0 0 0 0 0 0 0 0 0 0 0 0 0 0 0 0 0 0 0 0 0 0 0 0 0 0 0 0 0 0 0 0 0 0 0 0 0 0 0 0 0 0 0 0 0 0 0 8161 8161 8161 8161 8161 8161 8161 8161 8161 8161 8161 8161 8161 8379 8379 8379 8379 8379 8379 8379 8268 8161 8161 8056 7954 7954 7855 7954 7954 7954 7954 8056 7855 8608 8977 8977 8851 8851 8851 8851 8728 8728 8728 8728 8728 8728 8728 8728 8728 8728 8851 8851 8851 8851 8977 8977 9107 9107 9107 9107 8977 8977 8977 8977 8851 8851 8851 8851 8977 8977 8977 8977 8977 8977 8977 8851 8851 8851 8851 8851 8851 8851 8851 8851 8851 8851 8851 8851 8728 0 0 0 0 0 0 8608 8728 8608 8608 8608 8728 8851 8977 8977 8977 8977 8977 8977 0 0 9107 9107 9107 9107 9107 9107 8977 8851 8851 8728 8728 8608 8608 8608 8492 8492 8492 8492 8492 8379 8379 8268 8268 8161 8161 8161 8161 8056 8056 8056 8056 8056 8056 8161 8161 8161 8268 8268 8268 8268 8268 8268 8268 8268 8268 8268 8268 8268 8268 8379 8379 8379 8379 8379 8379 8268 8268 8268 8161 8161 8161 8268 8379 8492 8492 8492 8492 8492 8492 8492 8492 8492 8608 8608 8608 8608 8608 8608 8608 8608 8608 8608 8492 8492 8492 8492 8492 8492 8608 8608 8608 8608 8608 8608 8608 8608 8608 8608 8608 8608 8608 8608 8608 8608 8608 8608 8608 8608 8608 8492 8492 8492 8492 8492 8492 8492 8492 8608 8608 8608 8608 8608 8608 8608 8728 8728 8728 8728 8728 8728 8728 8728
    0 0 0 0 0 0 0 0 0 0 0 0 0 0 0 0 0 0 0 0 0 0 0 0 0 0 0 0 0 0 0 0 0 0 0 0 0 0 0 0 0 0 0 0 0 0 0 0 0 0 0 0 0 0 0 0 0 0 0 0 0 0 0 0 0 0 0 0 0 0 0 0 0 0 0 0 0 0 0 0 0 0 0 0 0 0 0 0 0 0 0 0 0 0 0 0 0 0 0 0 0 0 0 0 0 0 0 0 0 0 0 0 0 0 0 0 0 0 0 0 0 0 0 0 0 0 0 0 0 0 0 0 0 0 0 0 0 0 0 0 0 0 0 0 0 0 0 0 0 0 0 0 0 0 0 0 0 0 8492 8492 8492 8492 8492 8492 8492 8492 8492 8492 8492 8492 8492 8492 8492 8492 8492 8492 8492 8492 8492 8492 8492 8492 8492 8492 8492 8379 8379 8379 8379 8728 8977 9107 9107 9241 9379 9379 9379 9379 9379 9379 9379 9379 9379 9379 9379 9379 9379 9379 9379 9379 9379 9379 9379 9379 9379 9379 9379 9379 9521 9521 9521 9521 9521 9521 9521 9668 9668 9668 9668 9668 9668 9668 9668 9668 9668 9668 9668 9668 9668 9668 9668 9668 9668 9668 9668 9668 9668 9668 9668 9668 9668 9668 0 0 0 0 0 0 0 0 0 0 0 0 0 0 0 0 0 0 0 0 0 0 0 0 0 0 0 0 0 0 0 0 0 0 0 0 0 0 0 0 0 0 0 0 0 0 0 0 0 0 0 0 6222 6222 6284 6284 6284 6284 6284 6284 6347 6347 6412 6412 6478 6478 6478 6546 6546 6615 6685 6757 6757 6830 6830 6830 6830 6830 6830 6830 6905 6905 6905 6905 6982 6982 6982 6982 6982 6982 7061 7061 7061 7061 7061 7141 7141 0 0 0 0 0 0 0 0 0 0 0 0 0 0 0 0 0 0 0 0 0 0 0 0 0 0 0 0 0 0 0 0 0 0 0 0 0 0 0 0 0 0 0 0 0 0 0 0 0 8161 8161 8161 8161 8161 8161 8161 8161 8161 8161 8161 8161 8161 8379 8379 8379 8379 8379 8379 8379 8268 8268 8161 8056 7954 7954 7855 7954 7954 7954 7954 8056 8379 8977 8977 8977 8851 8851 8851 8851 8851 8851 8851 8851 8728 8728 8728 8728 8728 8851 8851 8851 8851 8851 8977 8977 9107 9107 9107 9107 8977 8977 8977 8977 8851 8851 8851 8851 8977 8977 8977 8977 8977 8977 8977 8977 8851 8851 8851 8851 8851 8851 8851 8851 8851 8851 8851 8851 8728 8492 8492 8492 8492 0 0 0 8728 8728 8728 8728 8728 8977 8977 8977 8977 8977 8977 8977 0 0 9107 9107 9107 9107 9107 9107 8977 8851 8851 8728 8728 8608 8608 8492 8492 8492 8492 8492 8492 8379 8379 8268 8268 8161 8161 8161 8161 8056 8056 8056 8056 8056 8056 8056 8056 8161 8161 8161 8268 8268 8161 8161 8161 8161 8161 8161 8268 8268 8268 8379 8379 8379 8379 8379 8379 8268 8268 8268 8268 8161 8161 8268 8379 8379 8492 8492 8492 8492 8492 8492 8492 8492 8492 8608 8608 8608 8608 8608 8608 8608 8608 8608 8492 8492 8492 8492 8492 8492 8608 8608 8608 8608 8608 8608 8608 8608 8608 8608 8608 8608 8608 8608 8608 8608 8608 8608 8608 8608 8608 8492 8492 8492 8379 8379 8492 8492 8492 8492 8608 8608 8608 8608 8608 8608 8728 8728 8728 8728 8728 8728 8728 8608
    0 0 0 0 0 0 0 0 0 0 0 0 0 0 0 0 0 0 0 0 0 0 0 0 0 0 0 0 0 0 0 0 0 0 0 0 0 0 0 0 0 0 0 0 0 0 0 0 0 0 0 0 0 0 0 0 0 0 0 0 0 0 0 0 0 0 0 0 0 0 0 0 0 0 0 0 0 0 0 0 0 0 0 0 0 0 0 0 0 0 0 0 0 0 0 0 0 0 0 0 0 0 0 0 0 0 0 0 0 0 0 0 0 0 0 0 0 0 0 0 0 0 0 0 0 0 0 0 0 0 0 0 0 0 0 0 0 0 0 0 0 0 0 0 0 0 0 0 0 0 0 0 0 0 0 0 0 0 8492 8492 8492 8492 8492 8492 8492 8492 8492 8492 8492 8492 8492 8492 8492 8492 8492 8492 8492 8492 8492 8492 8492 8492 8492 8492 8492 8379 8379 8379 8379 8851 8977 9107 9107 9241 9241 9379 9379 9379 9379 9379 9379 9379 9379 9379 9379 9379 9379 9379 9379 9379 9379 9379 9379 9521 9521 9521 9521 9521 9521 9521 9521 9521 9521 9521 9521 9668 9668 9668 9668 9668 9668 9668 9668 9668 9668 9668 9668 9668 9668 9668 9668 9668 9668 9668 9668 9668 9668 9668 9668 9668 9668 9668 0 0 0 0 0 0 0 0 0 0 0 0 0 0 0 0 0 0 0 0 0 0 0 0 0 0 0 0 0 0 0 0 0 0 0 0 0 0 0 0 0 0 0 0 0 0 0 0 0 0 0 0 6222 6284 6284 6284 6284 6284 6284 6284 6347 6412 6412 6478 6478 6478 6478 6546 6546 6615 6685 6685 6757 6830 6830 6830 6830 6830 6830 6905 6905 6905 6905 6982 6982 6982 6982 6982 6982 7061 7061 7061 7061 7141 7141 7141 7223 7223 7307 0 0 0 0 0 0 0 0 0 0 0 0 0 0 0 0 0 0 0 0 0 0 0 0 0 0 0 0 0 0 0 0 0 0 0 0 0 0 0 0 0 0 0 0 0 0 0 8161 8161 8161 8161 8161 8056 8056 8056 8161 8161 8161 8161 8161 8379 8379 8379 8379 8379 8379 8379 8268 8268 8161 8056 7954 7855 7855 7954 7954 7954 8161 8608 8977 8977 8977 8977 8851 8851 8851 8851 8851 8851 8977 8977 8851 8851 8851 8851 8851 8977 8977 8851 8851 8977 8977 8977 9107 9107 9107 8977 8977 8977 8977 8977 8851 8851 8851 8977 8977 8977 8977 8977 8977 8977 8977 8977 8977 8851 8851 8851 8851 8851 8851 8851 8851 8851 8851 8728 8492 8379 8379 8379 8379 8268 0 0 8728 8728 8728 8728 8728 8977 8977 8977 8977 8977 8977 8977 0 0 0 8977 8977 8977 9107 9107 8977 8851 8851 8728 8728 8608 8608 8492 8492 8492 8492 8492 8492 8379 8379 8268 8268 8161 8161 8161 8161 8056 8056 8056 8056 8056 8056 8056 8056 8056 8161 8161 8161 8161 8161 8161 8161 8161 8161 8161 8268 8268 8268 8379 8379 8379 8379 8379 8379 8268 8268 8268 8268 8268 8161 8268 8268 8379 8492 8492 8492 8492 8492 8492 8492 8492 8492 8608 8608 8608 8608 8608 8608 8608 8608 8608 8492 8492 8492 8492 8492 8492 8492 8608 8608 8608 8608 8608 8608 8608 8608 8492 8492 8492 8492 8492 8492 8608 8608 8608 8608 8608 8608 8492 8492 8492 8492 8379 8492 8492 8492 8492 8608 8608 8608 8608 8608 8608 8608 8608 8728 8728 8728 8608 8608 8608
    0 0 0 0 0 0 0 0 0 0 0 0 0 0 0 0 0 0 0 0 0 0 0 0 0 0 0 0 0 0 0 0 0 0 0 0 0 0 0 0 0 0 0 0 0 0 0 0 0 0 0 0 0 0 0 0 0 0 0 0 0 0 0 0 0 0 0 0 0 0 0 0 0 0 0 0 0 0 0 0 0 0 0 0 0 0 0 0 0 0 0 0 0 0 0 0 0 0 0 0 0 0 0 0 0 0 0 0 0 0 0 0 0 0 0 0 0 0 0 0 0 0 0 0 0 0 0 0 0 0 0 0 0 0 0 0 0 0 0 0 0 0 0 0 0 0 0 0 0 0 0 0 0 0 0 0 0 0 8492 8492 8492 8492 8492 8492 8492 8492 8492 8492 8492 8492 8492 8492 8492 8492 8492 8492 8492 8492 8492 8492 8492 8492 8492 8492 8379 8379 8379 8379 8379 8728 8977 9107 9107 9107 9241 9379 9379 9379 9379 9379 9379 9379 9379 9379 9379 9379 9379 9379 9379 9379 9379 9379 9379 9521 9521 9521 9521 9521 9521 9521 9521 9521 9521 9521 9521 9668 9668 9668 9668 9668 9668 9668 9668 9668 9668 9668 9668 9668 9668 9668 9668 9668 9668 9668 9668 9668 9668 9668 9668 9668 9668 0 0 0 0 0 0 0 0 0 0 0 0 0 0 0 0 0 0 0 0 0 0 0 0 0 0 0 0 0 0 0 0 0 0 0 0 0 0 0 0 0 0 0 0 0 0 0 0 0 0 0 0 0 0 6284 6284 6284 6284 6284 6284 6347 6412 6412 6478 6478 6478 6478 6478 6546 6546 6615 6615 6685 6757 6830 6830 6830 6830 6830 6830 6905 6905 6905 6982 6982 6982 6982 6982 6982 7061 7061 7061 7061 7141 7141 7141 7223 7223 7223 7307 7307 0 0 0 0 0 0 0 0 0 0 0 0 0 0 0 0 0 0 0 0 0 0 0 0 0 0 0 0 0 0 0 0 0 0 0 0 0 0 0 0 0 0 0 0 0 0 8161 8161 8161 8161 8161 8056 8056 8056 8056 8056 8056 8056 8056 8379 8379 8379 8379 8379 8379 8379 8379 8268 8268 8161 8056 7855 7855 7954 7954 8056 8492 8851 8977 8977 8977 8851 8851 8851 8851 8851 8851 8977 8977 8977 8977 8977 8977 8977 8977 8977 8977 8977 8977 8977 8977 8977 8977 8977 8977 8977 8977 8977 8977 8977 8851 8851 8977 8977 8977 8977 8977 8977 8977 8977 8977 8977 8977 8977 8851 8851 8851 8851 8728 8728 8728 8728 8608 8492 8379 8268 8268 8268 8268 8268 0 0 0 0 0 0 0 8977 8977 8977 8977 8977 8977 8977 0 0 0 0 0 0 9107 9107 8977 8851 8851 8728 8728 8608 8608 8492 8492 8492 8492 8492 8492 8379 8379 8268 8161 8161 8161 8161 8161 8056 8056 8056 8056 7954 7954 7954 8056 8056 8056 8161 8161 8161 8161 8161 8161 8161 8161 8161 8268 8268 8268 8379 8379 8379 8379 8379 8379 8268 8268 8268 8268 8268 8268 8268 8268 8379 8492 8492 8492 8492 8492 8492 8492 8492 8492 8608 8608 8608 8608 8608 8608 8608 8492 8492 8492 8492 8492 8492 8492 8492 8492 8492 8608 8608 8608 8608 8608 8608 8608 8492 8492 8492 8492 8492 8492 8492 8608 8608 8608 8608 8608 8608 8492 8492 8492 8492 8492 8492 8492 8492 8608 8608 8608 8608 8608 8608 8608 8608 8608 8608 8608 8608 8608 8608
    0 0 0 0 0 0 0 0 0 0 0 0 0 0 0 0 0 0 0 0 0 0 0 0 0 0 0 0 0 0 0 0 0 0 0 0 0 0 0 0 0 0 0 0 0 0 0 0 0 0 0 0 0 0 0 0 0 0 0 0 0 0 0 0 0 0 0 0 0 0 0 0 0 0 0 0 0 0 0 0 0 0 0 0 0 0 0 0 0 0 0 0 0 0 0 0 0 0 0 0 0 0 0 0 0 0 0 0 0 0 0 0 0 0 0 0 0 0 0 0 0 0 0 0 0 0 0 0 0 0 0 0 0 0 0 0 0 0 0 0 0 0 0 0 0 0 0 0 0 0 0 0 0 0 0 0 0 0 8492 8492 8492 8492 8492 8492 8492 8492 8492 8492 8492 8492 8492 8492 8492 8492 8492 8492 8492 8492 8492 8492 8492 8492 8492 8492 8379 8379 8379 8379 8379 8608 8851 9107 9107 9107 9241 9379 9379 9379 9379 9379 9379 9379 9379 9379 9379 9379 9379 9379 9379 9379 9379 9379 9379 9521 9521 9521 9521 9521 9521 9521 9521 9521 9521 9521 9668 9668 9668 9668 9668 9668 9668 9668 9668 9668 9668 9668 9668 9668 9668 9668 9668 9668 9668 9668 9668 9668 9668 9668 9521 9521 9379 9241 9241 9107 9107 0 0 0 0 0 0 0 0 0 0 0 0 0 0 0 0 0 0 0 0 0 0 0 0 0 0 0 0 0 0 0 0 0 0 0 0 0 0 0 0 0 0 0 0 0 0 0 0 0 0 0 0 0 0 0 0 6478 6478 6478 6478 6478 6478 6478 6478 6546 6546 6546 6615 6685 6757 6830 6830 6830 6830 6830 6905 6905 6905 6905 6982 6982 6982 6982 7061 7061 7061 7061 7061 7141 7141 7141 7141 7223 7223 7223 7307 7307 7307 0 0 0 0 0 0 0 0 0 0 0 0 0 0 0 0 0 0 0 0 0 0 0 0 0 0 0 0 0 0 0 0 0 0 0 0 0 0 0 0 0 0 0 0 0 8161 8161 8161 8161 8161 8056 8056 8056 8056 8056 8161 8161 8161 8161 8161 8056 8379 8379 8379 8379 8379 8379 8379 8268 8268 8161 8056 7855 7855 7855 8851 8851 8977 8977 8851 8851 8851 8851 8851 8851 8977 8977 9107 9107 8977 8977 8977 8977 8977 8977 8977 8977 8977 8977 8977 8977 8977 0 8977 8977 8977 8977 8977 8851 8851 8851 8977 8977 8977 8977 8977 8977 8977 8977 8977 8977 8977 8977 8851 8851 8851 8728 8728 8728 8608 8608 8492 8379 8268 8268 8268 8268 8268 8161 8056 0 0 0 0 0 0 8977 8977 8977 8977 8977 8977 0 0 0 0 0 0 0 0 8977 8977 8851 8851 8728 8728 8608 8492 8492 8492 8492 8492 8492 8379 8379 8268 8268 8161 8161 8161 8161 8161 8056 8056 8056 7954 7954 7954 7954 7954 8056 8056 8056 8161 8161 8161 8161 8161 8161 8161 8268 8268 8268 8268 8379 8379 8379 8379 8379 8379 8268 8268 8268 8268 8268 8268 8268 8268 8379 8379 8492 8492 8492 8492 8492 8492 8492 8492 8492 8608 8608 8608 8608 8492 8492 8492 8492 8492 8379 8379 8379 8492 8492 8492 8492 8492 8608 8608 8608 8608 8608 8492 8492 8492 8492 8492 8492 8492 8492 8492 8608 8608 8608 8608 8608 8492 8492 8492 8492 8492 8492 8492 8492 8492 8608 8608 8608 8608 8608 8608 8608 8608 8608 8608 8608 8608 8608
    0 0 0 0 0 0 0 0 0 0 0 0 0 0 0 0 0 0 0 0 0 0 0 0 0 0 0 0 0 0 0 0 0 0 0 0 0 0 0 0 0 0 0 0 0 0 0 0 0 0 0 0 0 0 0 0 0 0 0 0 0 0 0 0 0 0 0 0 0 0 0 0 0 0 0 0 0 0 0 0 0 0 0 0 0 0 0 0 0 0 0 0 0 0 0 0 0 0 0 0 0 0 0 0 0 0 0 0 0 0 0 0 0 0 0 0 0 0 0 0 0 0 0 0 0 0 0 0 0 0 0 0 0 0 0 0 0 0 0 0 0 0 0 0 0 0 0 0 0 0 0 0 0 0 0 0 0 0 8492 8492 8492 8492 8492 8492 8379 8379 8379 8379 8379 8492 8492 8492 8492 8492 8492 8492 8492 8492 8492 8492 8492 8492 8492 8492 8379 8379 8379 8379 8379 8608 8851 9107 9107 9107 9241 9379 9379 9379 9379 9379 9379 9379 9379 9379 9379 9379 9379 9379 9379 9379 9379 9379 9379 9521 9521 9521 9521 9521 9521 9521 9521 9521 9668 9668 9668 9668 9668 9668 9668 9668 9668 9668 9668 9668 9668 9668 9668 9668 9521 9668 9668 9668 9668 9668 9668 9668 9521 9521 9379 9379 9241 9241 9107 9107 9107 8977 0 0 0 0 0 0 0 0 0 0 0 0 0 0 0 0 0 0 0 0 0 0 0 0 0 0 0 0 0 0 0 0 0 0 0 0 0 0 0 0 0 0 0 0 0 0 0 0 0 0 0 0 0 0 0 6478 6478 6478 6478 6478 6478 6478 6546 6546 6546 6615 6615 6685 6757 6830 6830 6830 6830 6905 6905 6905 6905 6982 6982 6982 6982 7061 7061 7061 7061 7061 7141 7141 7141 7141 7223 7223 7223 7223 7223 7223 7223 7223 0 0 7663 7663 7663 7663 7663 7663 0 0 0 0 0 0 0 0 0 0 0 0 0 0 0 0 0 0 0 0 0 0 0 0 0 0 0 0 0 0 0 0 0 0 0 0 8056 8056 8056 8056 8056 8056 8056 8056 8056 8056 8161 8161 8161 8161 8161 8056 8056 8268 8268 8379 8379 8379 8379 8379 8379 8492 8492 0 0 0 8851 8851 8977 8977 8851 8851 8851 8851 8851 8851 8977 8977 9107 9107 9107 9107 9241 9241 9107 9107 9107 8977 8977 8977 8851 0 0 0 0 8851 8851 8851 8851 8851 8851 8851 8977 8977 8977 8977 8977 8977 8977 8977 8977 8977 8977 8977 8851 8851 8851 8728 8728 8608 8608 8492 8379 8268 8268 8268 8268 8268 8268 8161 8056 8056 0 0 0 0 0 0 0 0 0 0 0 0 0 0 0 0 0 0 0 8977 8977 8851 8851 8728 8728 8608 8492 8492 8492 8492 8492 8492 8379 8268 8268 8161 8161 8161 8161 8056 8056 8056 8056 8056 7954 7954 7954 7954 7954 7954 8056 8056 8056 8056 8056 8056 8161 8161 8161 8268 8268 8268 8268 8379 8379 8379 8379 8379 8379 8379 8268 8268 8268 8268 8268 8268 8268 8379 8379 8379 8379 8379 8379 8379 8492 8492 8492 8492 8492 8492 8492 8492 8492 8492 8492 8379 8379 8379 8379 8379 8492 8492 8492 8492 8492 8492 8608 8608 8492 8492 8492 8492 8492 8492 8492 8492 8492 8492 8492 8492 8608 8608 8608 8608 8492 8492 8492 8492 8492 8492 8492 8492 8492 8492 8492 8492 8608 8608 8608 8608 8608 8608 8608 8608 8608 8608
    0 0 0 0 0 0 0 0 0 0 0 0 0 0 0 0 0 0 0 0 0 0 0 0 0 0 0 0 0 0 0 0 0 0 0 0 0 0 0 0 0 0 0 0 0 0 0 0 0 0 0 0 0 0 0 0 0 0 0 0 0 0 0 0 0 0 0 0 0 0 0 0 0 0 0 0 0 0 0 0 0 0 0 0 0 0 0 0 0 0 0 0 0 0 0 0 0 0 0 0 0 0 0 0 0 0 0 0 0 0 0 0 0 0 0 0 0 0 0 0 0 0 0 0 0 0 0 0 0 0 0 0 0 0 0 0 0 0 0 0 0 0 0 0 0 0 0 0 0 0 0 0 0 0 0 0 0 0 8492 8492 8492 8492 8492 8379 8379 8379 8379 8379 8379 8492 8492 8492 8492 8492 8492 8492 8492 8492 8492 8492 8492 8492 8492 8492 8379 8379 8379 8379 8379 8492 8728 9107 9107 9107 9241 9379 9379 9379 9379 9379 9379 9379 9379 9379 9379 9379 9379 9379 9379 9379 9379 9379 9521 9521 9521 9521 9521 9521 9521 9521 9668 9668 9668 9668 9668 9668 9668 9668 9668 9668 9668 9668 9668 9668 9668 9668 9668 9521 9521 9521 9521 9668 9668 9668 9521 9521 9521 9379 9379 9379 9241 9241 9107 9107 8977 8977 8851 0 0 0 0 0 0 0 0 0 0 0 0 0 0 0 0 0 0 0 0 0 0 0 0 0 0 0 0 0 0 0 0 0 0 0 0 0 0 0 0 0 0 0 0 0 0 0 0 0 0 0 0 0 0 6478 6478 6478 6478 6478 6478 6546 6546 6546 6546 6615 6685 6757 6757 6830 6830 6830 6830 6905 6905 6905 6982 6982 6982 6982 7061 7061 7061 7061 7061 7141 7141 7141 7141 7141 7223 7223 7223 7223 7223 7223 7223 7223 7481 7758 7663 7663 7663 7663 7663 7663 0 0 0 0 0 0 0 0 0 0 0 0 0 0 0 0 0 0 0 0 0 0 0 0 0 0 0 0 0 0 0 0 0 0 0 0 8056 8056 8056 8056 8056 8056 8056 8056 8056 8056 8161 8161 8161 8161 8161 8056 8056 8056 8268 8379 8379 8379 8379 8379 8379 8492 8379 8268 8268 8268 8379 8492 8608 8728 8851 8851 8851 8851 8851 8851 8977 9107 9107 9241 9241 9241 9379 9521 9379 9241 9241 9107 8977 8977 0 0 0 0 0 0 0 8851 8851 8851 8851 8851 8977 8977 8977 8977 8977 8977 8977 8977 8977 8977 8977 8977 8851 8851 8851 8728 8728 8608 8492 8379 8379 8268 8268 8268 8161 8161 8161 8161 8056 8056 0 0 0 0 0 0 0 0 0 0 0 0 0 0 0 0 0 0 0 0 8977 8851 8851 8728 8728 8608 8492 8379 8379 8379 8379 8492 8379 8268 8161 8161 8161 8161 8056 8056 8056 8056 8056 8056 7954 7954 7954 7954 7954 7954 7954 8056 8056 8056 8056 8056 8161 8161 8161 8268 8268 8268 8379 8379 8379 8379 8379 8379 8379 8379 8379 8268 8268 8268 8268 8268 8268 8379 8379 8379 8379 8379 8379 8379 8379 8379 8492 8492 8492 8492 8492 8492 8492 8379 8379 8379 8379 8379 8379 8379 8379 8492 8492 8492 8492 8492 8492 8492 8492 8492 8492 8379 8379 8379 8379 8379 8379 8492 8492 8492 8492 8492 8608 8608 8492 8492 8492 8492 8492 8492 8492 8492 8492 8492 8492 8492 8492 8492 8492 8492 8492 8608 8608 8608 8608 8608
    0 0 0 0 0 0 0 0 0 0 0 0 0 0 0 0 0 0 0 0 0 0 0 0 0 0 0 0 0 0 0 0 0 0 0 0 0 0 0 0 0 0 0 0 0 0 0 0 0 0 0 0 0 0 0 0 0 0 0 0 0 0 0 0 0 0 0 0 0 0 0 0 0 0 0 0 0 0 0 0 0 0 0 0 0 0 0 0 0 0 0 0 0 0 0 0 0 0 0 0 0 0 0 0 0 0 0 0 0 0 0 0 0 0 0 0 0 0 0 0 0 0 0 0 0 0 0 0 0 0 0 0 0 0 0 0 0 0 0 0 0 0 0 0 0 0 0 0 0 0 0 0 0 0 0 0 0 0 8492 8492 8492 8492 8492 8379 8379 8379 8379 8379 8379 8379 8492 8492 8492 8492 8492 8492 8492 8492 8492 8492 8492 8492 8492 8379 8379 8379 8379 8379 8379 8492 8608 8977 8977 9107 9241 9241 9241 9379 9379 9379 9379 9379 9379 9379 9379 9379 9379 9379 9379 9379 9379 9379 9521 9521 9521 9521 9521 9521 9668 9668 9668 9668 9668 9668 9668 9668 9668 9668 9668 9668 9668 9668 9668 9668 9668 9668 9521 9521 9521 9521 9521 9521 9668 9521 9521 9521 9521 9379 9379 9241 9241 9107 9107 9107 8977 8977 8977 0 0 0 0 0 0 0 0 0 0 0 0 0 0 0 0 0 0 0 0 0 0 0 0 0 0 0 0 0 0 0 0 0 0 0 0 0 0 0 0 0 0 0 0 0 0 0 0 0 0 0 0 0 0 6478 6478 6478 6478 6478 6478 6546 6546 6546 6615 6615 6685 6757 6757 6830 6830 6830 6905 6905 6905 6982 6982 6982 6982 7061 7061 7061 7061 7061 7141 7141 7141 7141 7141 7141 7223 7223 7223 7223 7223 7223 7223 7307 7571 7758 7663 7663 7663 7663 7663 7663 0 0 0 0 0 0 0 0 0 0 0 0 0 0 0 0 0 0 0 0 0 0 0 0 0 0 0 0 0 0 0 0 0 0 0 0 0 0 8056 8056 8056 8056 8056 8056 8056 8056 8161 8161 8161 8161 8161 8056 8056 8056 8268 8379 8379 8379 8379 8379 8379 8379 8379 8268 8268 8268 8268 8268 8379 8492 8608 8728 8851 8851 8728 8851 8851 9107 9241 9379 9379 9379 9379 9521 9521 8977 8977 8977 8977 8977 0 0 0 0 0 0 0 0 0 0 0 0 0 8977 8977 8977 8977 8977 8977 8977 8977 8977 8977 8851 8851 8851 8851 8728 8608 8608 8492 8379 8268 8268 8268 8268 8161 8161 8161 8161 8056 8056 0 0 0 0 0 0 0 0 0 0 0 0 0 0 0 0 0 0 0 0 0 0 0 0 0 8492 8379 8379 8379 8379 8379 8492 8379 8268 8161 8161 8161 8056 8056 8056 8056 8056 8056 8056 7954 7954 7954 7954 7954 7954 7954 8056 8056 8056 8056 8056 8161 8161 8268 8268 8268 8379 8379 8379 8379 8379 8379 8379 8379 8379 8379 8379 8268 8268 8268 8268 8268 8379 8379 8379 8379 8379 8379 8379 8379 8379 8379 8492 8492 8492 8492 8492 8379 8379 8379 8379 8379 8379 8379 8379 8492 8492 8492 8492 8492 8492 8492 8492 8492 8492 8492 8379 8379 8379 8379 8379 8379 8492 8492 8492 8492 8492 8492 8492 8492 8492 8492 8492 8492 8492 8492 8492 8492 8492 8492 8492 8492 8492 8492 8492 8492 8492 8608 8608 8608 8608
    0 0 0 0 0 0 0 0 0 0 0 0 0 0 0 0 0 0 0 0 0 0 0 0 0 0 0 0 0 0 0 0 0 0 0 0 0 0 0 0 0 0 0 0 0 0 0 0 0 0 0 0 0 0 0 0 0 0 0 0 0 0 0 0 0 0 0 0 0 0 0 0 0 0 0 0 0 0 0 0 0 0 0 0 0 0 0 0 0 0 0 0 0 0 0 0 0 0 0 0 0 0 0 0 0 0 0 0 0 0 0 0 0 0 0 0 0 0 0 0 0 0 0 0 0 0 0 0 0 0 0 0 0 0 0 0 0 0 0 0 0 0 0 0 0 0 0 0 0 0 0 0 0 0 0 0 0 0 8492 8492 8492 8492 8492 8379 8379 8379 8379 8379 8379 8379 8379 8379 8379 8379 8379 8379 8492 8492 8492 8492 8492 8492 8379 8379 8379 8379 8379 8379 8379 8379 8379 0 8977 9107 9241 9241 9241 9379 9379 9379 9379 9379 9379 9379 9379 9379 9379 9379 9379 9379 9379 9379 9521 9521 9521 9521 9521 9521 9668 9668 9668 9668 9668 9668 9668 9668 9668 9668 9668 9668 9668 9668 9668 9668 9668 9668 9521 9521 9521 9521 9521 9521 9521 9521 9521 9521 9379 9379 9379 9241 9241 9107 9107 9107 8977 8977 8977 0 0 0 0 0 0 0 0 0 0 0 0 0 0 0 0 0 0 0 0 0 0 0 0 0 0 0 0 0 0 0 0 0 0 0 0 0 0 0 0 0 0 0 0 0 0 0 0 0 0 0 0 0 0 6478 6478 6478 6478 6478 6478 6546 6546 6546 6615 6685 6757 6757 6830 6830 6830 6905 6905 6905 6982 6982 6982 7061 7061 7061 7061 7061 7061 7061 7141 7141 7141 7141 7141 7141 7141 7223 7223 7223 7223 7223 7223 7307 7663 7663 7663 7663 7663 7663 7663 7663 0 0 0 0 0 0 0 0 0 0 0 0 0 0 0 0 0 0 0 0 0 0 0 0 0 0 0 0 0 0 0 0 0 0 0 0 0 0 0 0 0 0 8056 8056 8056 8056 8056 8056 8056 8056 8161 8056 8056 8056 0 8379 8379 8379 8492 8492 8492 8379 8379 8268 8268 8268 8268 8268 8268 8379 8492 8728 8728 8728 8608 8728 8851 9107 9241 9379 9379 9521 9521 9521 9521 9521 0 0 0 0 0 0 0 0 0 0 0 0 0 0 0 0 0 0 8977 8977 8977 8977 8977 8977 8977 8977 8977 8851 8851 8851 8728 8728 8608 8608 8492 8379 8268 8268 8268 8161 8161 8161 8161 8161 8056 8056 0 0 0 0 0 0 0 0 0 0 0 0 0 0 0 0 0 0 0 0 0 0 0 0 0 0 8268 8268 8379 8379 8379 8492 8379 8268 8268 8161 8161 8161 8056 8056 8056 8056 8056 8056 7954 7954 7954 7954 7954 7954 7954 8056 8056 8056 8056 8056 8161 8161 8268 8268 8268 8379 8379 8379 8379 8379 8379 8379 8379 8379 8379 8379 8379 8379 8379 8379 8379 8379 8379 8379 8379 8379 8379 8379 8379 8379 8379 8379 8379 8379 8379 8379 8379 8379 8379 8379 8379 8379 8379 8492 8492 8492 8492 8492 8492 8492 8492 8492 8492 8492 8379 8379 8379 8379 8379 8379 8379 8492 8492 8492 8492 8492 8492 8492 8492 8492 8492 8492 8492 8492 8492 8492 8492 8492 8492 8492 8492 8492 8492 8492 8492 8492 8492 8608 8608 8608
    0 0 0 0 0 0 0 0 0 0 0 0 0 0 0 0 0 0 0 0 0 0 0 0 0 0 0 0 0 0 0 0 0 0 0 0 0 0 0 0 0 0 0 0 0 0 0 0 0 0 0 0 0 0 0 0 0 0 0 0 0 0 0 0 0 0 0 0 0 0 0 0 0 0 0 0 0 0 0 0 0 0 0 0 0 0 0 0 0 0 0 0 0 0 0 0 0 0 0 0 0 0 0 0 0 0 0 0 0 0 0 0 0 0 0 0 0 0 0 0 0 0 0 0 0 0 0 0 0 0 0 0 0 0 0 0 0 0 0 0 0 0 0 0 0 0 0 0 0 0 0 0 0 0 0 0 0 0 8492 8492 8492 8492 8492 8379 8379 8379 8379 8379 8379 8379 8379 8379 8379 8379 8379 8379 8379 8379 8379 8379 8379 8379 8379 8379 8379 8379 8379 8379 8379 8379 8379 0 8977 9107 9241 9241 9241 9241 9379 9379 9379 9379 9379 9379 9379 9379 9379 9379 9379 9379 9379 9379 9521 9521 9521 9521 9521 9521 9668 9668 9668 9668 9668 9668 9668 9668 9668 9668 9668 9668 9668 9668 9668 9668 9668 9521 9521 9521 9521 9521 9521 9521 9521 9521 9521 9379 9379 9379 9241 9241 9241 9107 9107 9107 8977 8977 8977 0 0 0 0 0 0 0 0 0 0 0 0 0 0 0 0 0 0 0 0 0 0 0 0 0 0 0 0 0 0 0 0 0 0 0 0 0 0 0 0 0 0 0 0 0 0 0 0 0 0 0 0 0 0 0 0 0 6478 6478 6478 6546 6546 6615 6685 6757 6757 6830 6830 6830 6905 6905 6905 6982 6982 6982 7061 7061 7061 7061 7061 7061 7061 7141 7141 7141 7141 7141 7141 7141 7141 7141 7141 7223 7223 7223 7223 7393 7663 7663 7663 7663 7663 7663 7663 7663 0 0 0 0 0 0 0 0 0 0 0 0 0 0 0 0 0 0 0 0 0 0 0 0 0 0 0 0 0 0 0 0 0 0 0 0 0 0 0 0 0 0 0 8056 8056 8056 8056 8056 8056 8056 8056 8056 8161 8268 8608 8492 8492 8492 8492 8492 8492 8379 8379 8268 8268 8268 8268 8268 8268 8379 8492 8608 8728 8728 8492 8728 8728 9107 9379 9521 9521 9521 9521 9521 9521 9521 9521 9521 0 0 0 0 0 0 0 0 0 0 0 0 0 0 0 0 0 8977 8977 8977 8977 8977 8977 8977 8851 8851 8851 8851 8728 8728 8608 8608 8492 8379 8379 8268 8268 8161 8161 8161 8161 8056 8056 8056 0 0 0 0 0 0 0 0 0 0 0 0 0 0 0 0 0 0 0 0 0 0 0 0 8161 8161 8161 8268 8268 8379 8492 8492 8379 8379 8268 8161 8161 8161 8056 8056 8056 8056 8056 8056 8056 7954 7954 7954 7954 7954 7954 8056 8056 8056 8056 8056 8161 8161 8268 8268 8268 8379 8379 8379 8379 8379 8492 8379 8379 8379 8379 8379 8379 8379 8379 8379 8379 8379 8379 8379 8379 8379 8268 8379 8379 8379 8379 8379 8379 8379 8379 8379 8379 8379 8379 8379 8379 8379 8492 8492 8492 8492 8492 8492 8492 8492 8492 8492 8492 8492 8379 8379 8379 8379 8379 8492 8492 8492 8492 8492 8492 8492 8492 8492 8492 8608 8492 8492 8492 8492 8492 8492 8492 8492 8379 8379 8379 8379 8379 8379 8379 8492 8492 8492 8608 8608
    0 0 0 0 0 0 0 0 0 0 0 0 0 0 0 0 0 0 0 0 0 0 0 0 0 0 0 0 0 0 0 0 0 0 0 0 0 0 0 0 0 0 0 0 0 0 0 0 0 0 0 0 0 0 0 0 0 0 0 0 0 0 0 0 0 0 0 0 0 0 0 0 0 0 0 0 0 0 0 0 0 0 0 0 0 0 0 0 0 0 0 0 0 0 0 0 0 0 0 0 0 0 0 0 0 0 0 0 0 0 0 0 0 0 0 0 0 0 0 0 0 0 0 0 0 0 0 0 0 0 0 0 0 0 0 0 0 0 0 0 0 0 0 0 0 0 0 0 0 0 0 0 0 0 0 0 0 0 8492 8492 8492 8492 8492 8379 8379 8379 8379 8379 8379 8379 8379 8379 8379 8379 8379 8379 8379 8379 8379 8379 8379 8379 8379 8379 8379 8379 8379 8379 8379 8379 8379 0 8977 9107 9241 9241 9241 9241 9241 9241 9379 9379 9379 9379 9379 9379 9379 9379 9379 9379 9379 9379 9521 9521 9521 9521 9521 9521 9668 9668 9668 9668 9668 9668 9668 9668 9668 9668 9521 9521 9521 9521 9521 9521 9521 9521 9521 9521 9521 9521 9379 9379 9379 9379 9379 9379 9379 9241 9241 9241 9241 9107 9107 9107 9107 8977 8977 0 0 0 0 0 0 0 0 0 0 0 0 0 0 0 0 0 0 0 0 0 0 0 0 0 0 0 0 0 0 0 0 0 0 0 0 0 0 0 0 0 0 0 0 0 0 0 0 0 0 0 0 0 0 0 0 0 0 0 0 0 0 6757 6830 6830 6830 6830 6830 6905 6905 6905 6905 6982 6982 7061 7061 7061 7061 7061 7061 7061 7061 7141 7141 7141 7141 7141 7141 7141 7141 7141 7141 7141 7141 7141 7141 7307 7393 7481 7481 7571 7571 7571 7571 7571 0 0 0 0 0 0 0 0 0 0 0 0 0 0 0 0 0 0 0 0 0 0 0 0 0 0 0 0 0 0 0 0 0 0 0 0 0 0 0 0 0 0 0 0 8056 8056 8056 8056 8056 8056 8056 8056 8268 8379 8608 8608 8492 8492 8492 8492 8492 8492 8379 8379 8268 8268 8268 8268 8268 8379 8492 8608 8608 8608 8492 8608 8728 9107 9379 9521 9521 9521 9521 9521 9521 9521 9521 9521 0 0 0 0 0 0 0 0 0 0 0 0 0 0 0 0 0 0 8977 8977 8977 8851 8851 8851 8851 8851 8851 8728 8728 8728 8608 8608 8492 8492 8379 8268 8268 8268 8161 8161 8161 8056 8056 8056 0 0 0 0 0 0 0 0 0 0 0 0 0 0 0 0 0 0 0 0 0 0 0 8161 8161 8161 8161 8161 8268 8379 8492 8492 8492 8379 8268 8268 8161 8161 8056 8056 8056 8056 8056 8056 8056 8056 8056 8056 8056 7954 7954 7954 8056 8056 8056 8056 8161 8268 8268 8268 8268 8268 8379 8379 8379 8379 8492 8492 8379 8379 8379 8379 8379 8379 8379 8379 8379 8379 8379 8379 8379 8379 8379 8268 8379 8379 8379 8379 8379 8379 8379 8492 8492 8379 8379 8379 8379 8492 8492 8492 8492 8492 8492 8492 8492 8492 8492 8492 8492 8492 8492 8379 8492 8492 8492 8492 8492 8492 8492 8492 8492 8492 8608 8608 8608 8608 8608 8492 8492 8492 8492 8492 8492 8492 8379 8379 8379 8379 8379 8379 8379 8379 8379 8492 8492 8492
    0 0 0 0 0 0 0 0 0 0 0 0 0 0 0 0 0 0 0 0 0 0 0 0 0 0 0 0 0 0 0 0 0 0 0 0 0 0 0 0 0 0 0 0 0 0 0 0 0 0 0 0 0 0 0 0 0 0 0 0 0 0 0 0 0 0 0 0 0 0 0 0 0 0 0 0 0 0 0 0 0 0 0 0 0 0 0 0 0 0 0 0 0 0 0 0 0 0 0 0 0 0 0 0 0 0 0 0 0 0 0 0 0 0 0 0 0 0 0 0 0 0 0 0 0 0 0 0 0 0 0 0 0 0 0 0 0 0 0 0 0 0 0 0 0 0 0 0 0 0 0 0 0 0 0 0 0 0 8492 8492 8492 8492 8492 8379 8379 8379 8379 8379 8379 8379 8379 8379 8379 8379 8379 8379 8379 8379 8379 8379 8379 8379 8379 8379 8379 8379 8379 8379 8379 8379 8379 0 9107 9107 9241 9241 9241 9241 9241 9241 9241 9379 9379 9379 9379 9379 9379 9379 9379 9379 9379 9379 9521 9521 9521 9521 9521 9521 9668 9668 9668 9668 9668 9668 9668 9668 9668 9521 9521 9521 9521 9521 9521 9521 9521 9521 9521 9521 9379 9379 9241 9241 9241 9241 9241 9241 9241 9241 9241 9241 9241 9107 9107 9107 9107 9107 8977 0 0 0 9521 9521 9521 9521 9521 0 0 0 0 0 0 0 0 0 0 0 0 0 0 0 0 0 0 0 0 0 0 0 0 0 0 0 0 0 0 0 0 0 0 0 0 0 0 0 0 0 0 0 0 0 0 0 0 0 0 0 0 0 0 6757 6830 6830 6830 6830 6905 6905 6905 6905 6982 6982 7061 7061 7061 7061 7061 7061 7061 7061 7141 7141 7141 7141 7141 7141 7141 7141 7141 7141 7141 7141 7141 7141 7141 7223 7307 7307 7393 7393 7393 7393 7481 7571 7307 7307 7307 7393 7393 7393 7393 7393 7393 7393 0 0 0 0 0 0 0 0 0 0 0 0 0 0 0 0 0 0 0 0 0 0 0 0 0 0 0 0 0 0 0 0 0 7954 7954 8056 8056 8056 8056 8056 8056 8056 8268 8492 8608 8608 8608 8492 8492 8492 8492 8492 8379 8379 8379 8379 8268 8268 8268 8379 8379 8492 8492 8492 8379 8608 8728 8977 9241 9521 9668 9521 9521 9521 9521 9521 9521 9521 0 0 0 0 0 0 0 0 0 0 0 0 0 0 0 0 0 0 0 8977 8851 8851 8851 8851 8728 8728 8728 8728 8728 8608 8608 8608 8492 8492 8379 8379 8268 8268 8161 8161 8161 8056 8056 0 0 0 0 0 0 0 0 0 0 0 0 0 0 0 0 0 0 0 0 0 0 0 8161 8161 8161 8161 8161 8161 8161 8268 8379 8379 8379 8379 8268 8268 8161 8056 8056 8056 8056 8056 8056 8056 8056 8056 8056 8056 8056 8056 8056 8056 8056 8056 8056 8056 8161 8268 8268 8268 8268 8268 8268 8379 8379 8379 8379 8492 8379 8379 8379 8379 8379 8379 8379 8379 8379 8379 8379 8379 8379 8379 8379 8379 8379 8379 8379 8379 8379 8379 8492 8492 8492 8492 8492 8492 8492 8492 8492 8492 8492 8492 8492 8492 8492 8492 8492 8492 8492 8492 8492 8492 8492 8492 8492 8492 8492 8492 8492 8608 8608 8608 8608 8608 8608 8608 8608 8492 8492 8492 8492 8492 8492 8492 8492 8379 8379 8379 8379 8379 8379 8379 8379 8379 8492 8492</data></DepthMat>
</opencv_storage>
