<?xml version="1.0"?>
<opencv_storage>
<DepthMat type_id="opencv-matrix">
  <rows>41</rows>
  <cols>512</cols>
  <dt>w</dt>
  <data>
    0 0 0 0 0 0 0 0 0 0 0 0 0 0 0 0 0 0 0 0 0 0 0 0 0 0 0 0 0 0 0 0 0 0 0 0 0 0 0 0 0 0 0 0 0 0 0 0 0 0 0 0 0 0 0 0 0 0 0 5928 5928 5873 5873 5873 5873 5873 5873 0 0 0 0 0 0 0 0 8161 8161 8161 7954 7855 7758 7663 7571 7571 7481 7481 7481 7481 7481 7481 7141 0 0 0 0 0 0 0 0 0 0 0 0 0 0 0 0 0 0 0 0 0 0 0 0 0 0 0 0 0 0 0 7855 7855 7855 7855 7855 7954 7954 7954 7954 7954 8056 8056 8161 8268 8268 8379 8379 8379 8379 8379 8379 0 0 0 0 0 0 0 0 0 0 0 0 0 0 0 0 0 0 0 0 0 0 0 0 0 0 0 0 0 0 0 0 0 0 0 0 0 0 0 0 0 0 0 0 0 0 0 0 0 0 0 0 0 0 0 0 11025 11025 11025 11025 11221 11221 11426 11637 11857 12322 12568 12825 12825 12825 12825 13092 13092 13092 13092 13370 13370 13370 13370 13370 13370 13370 13370 13370 13370 13370 13370 13370 13370 0 0 0 0 0 0 0 0 0 0 0 0 0 0 0 0 0 0 0 0 0 0 0 0 0 0 0 0 0 0 0 0 0 0 0 0 0 0 0 0 0 0 0 0 0 0 0 0 0 0 0 0 0 0 0 0 0 0 0 0 0 0 13965 13965 13965 13965 13965 13661 13661 13661 13661 13370 13092 12825 12825 12568 12568 12322 12322 12322 12085 12085 11857 11857 12085 12085 12322 12322 12322 12322 12085 11857 11857 11637 11637 11426 11426 11637 11637 11637 11637 11637 11857 11857 11857 11857 12085 12085 12322 12322 12568 12825 12825 12825 13092 13092 13092 13092 13370 13370 13661 13965 14282 14282 14282 13965 13965 13661 13661 13661 13370 13370 13370 13370 13370 13370 13370 13370 13370 13370 13370 13370 13370 13370 13370 13370 13661 13661 13661 13661 13661 13661 13661 13661 13661 13661 13661 13661 13661 13661 13661 13661 13661 13661 13370 13370 13661 13661 13661 13661 13661 13661 13661 13661 13661 13661 13661 13661 13661 13661 13661 13370 0 0 0 0 0 0 20271 20947 20947 20947 20947 20947 20947 20947 20947 20947 20947 20947 20947 20947 20947 20947 20947 20947 20947 20271 20271 20271 0 0 16984 16984 16984 16984 16984 16984 16984 17456 17456 17456 17456 17456 17456 17456 16984 16984 16984 0 0 0 0 0 0 17955 17955 17955 17955 17955 17955 17955 17955 17955 17955 17955 16113 16113 16113 16113 16113 16113 16113 0 13092 13092 13092 13092 13092 13092 13661 13965 14282 15327 22443 0 0 0 0 0 11637 11637 11426 11426 11426 11426 11426 11221 11221 11221
    0 0 0 0 0 0 0 0 0 0 0 0 0 0 0 0 0 0 0 0 0 0 0 0 0 0 0 0 0 0 0 0 0 0 0 0 0 0 0 0 0 0 0 0 0 0 0 0 0 0 0 0 0 0 0 0 0 0 0 0 5873 5873 5873 5873 5873 5818 0 0 0 0 0 0 0 0 0 0 0 0 7663 7663 7571 7571 7481 7481 7393 7393 7307 7307 7307 7223 7061 6982 0 0 0 0 0 0 0 0 0 0 0 0 0 0 0 0 0 0 0 0 0 0 0 0 0 0 0 0 0 0 7855 7855 7855 7855 7855 7855 7954 7954 7954 7954 7954 8056 8056 8161 8161 8268 8268 8268 8379 8379 0 0 0 0 0 0 0 0 0 0 0 0 0 0 0 0 0 0 0 0 0 0 0 0 0 0 0 0 0 0 0 0 0 0 0 0 0 0 0 0 0 0 0 0 0 0 0 0 0 0 0 0 0 0 0 0 0 11025 11025 11221 11426 11426 11637 11857 12085 12322 12568 12825 12825 12825 12825 12825 13092 13092 13092 13092 13092 13092 13092 13092 13092 13092 13092 13092 13370 13370 13092 13092 13092 0 0 0 0 0 0 0 0 0 0 0 0 0 0 0 0 0 0 0 0 0 0 0 0 0 0 0 0 0 0 0 0 0 0 0 0 0 0 0 0 0 0 0 0 0 0 0 0 0 0 0 0 0 0 0 0 0 0 0 0 0 0 0 13965 13965 13965 13965 13965 13965 13661 13661 13661 13370 13092 13092 12825 12568 12568 12322 12322 12322 12322 12085 12085 12085 12085 12085 12322 12322 12322 12322 12085 12085 11857 11857 11637 11637 11637 11637 11637 11637 11637 11637 11637 11857 11857 11857 12085 12085 12322 12322 12568 12825 13092 13370 13370 13370 13370 13370 13661 13965 13965 14282 14282 14282 13965 13965 13661 13661 13370 13370 13370 13370 13370 13370 13370 13370 13661 13370 13370 13370 13370 13370 13092 13370 13370 13370 13661 13661 13661 13661 13661 13661 13661 13370 13370 13370 13661 13661 13661 13661 13661 13661 13370 13370 13370 13370 13661 13661 13661 13661 13661 13661 13661 13661 13661 13661 13661 13661 13661 13661 13661 0 0 0 0 0 0 0 20271 20271 20271 20271 20271 20947 20947 20947 20947 20947 20947 20271 20271 20271 20271 20271 20271 20271 20271 19638 19638 19638 0 16984 16984 16984 16984 16984 16984 17456 17456 17456 17456 17456 17456 17456 17456 16984 16984 16984 16984 0 0 0 0 0 0 17955 17955 17955 17955 17955 17955 17955 17955 17955 17955 17456 16537 16537 16113 16113 16113 16113 16113 0 13370 13370 13092 13092 13092 13092 13370 13661 13661 14282 16537 0 0 0 0 0 11637 11637 11426 11426 11426 11426 11221 11221 11221 11221
    0 0 0 0 0 0 0 0 0 0 0 0 0 0 0 0 0 0 0 0 0 0 0 0 0 0 0 0 0 0 0 0 0 0 0 0 0 0 0 0 0 0 0 0 0 0 0 0 0 0 0 0 0 0 0 0 0 0 0 0 0 0 0 0 0 0 0 0 0 0 0 0 0 0 0 0 0 0 7663 7571 7481 7481 7393 7307 7307 7223 7223 7141 7141 7061 6905 6830 6757 6757 6757 0 0 0 0 0 0 0 0 0 0 0 0 0 0 0 0 0 0 0 0 0 0 0 0 0 0 0 7855 7855 7855 7855 7855 7855 7855 7954 7954 7954 7954 7954 8056 8056 8056 8161 8161 8161 8161 0 0 0 0 0 0 0 0 0 0 0 0 0 0 0 0 0 0 0 0 0 0 0 0 0 0 0 0 0 0 0 0 0 0 0 0 0 0 0 0 0 0 0 0 0 0 0 0 0 0 0 0 0 0 0 0 0 0 11025 11221 11637 11637 11857 12085 12322 12322 12568 12825 12825 12825 12825 12825 12825 13092 13092 13092 13092 13092 13092 13092 13092 13092 13092 13092 13092 13092 13092 13092 13092 0 0 0 0 0 0 0 0 0 0 0 0 0 0 0 0 0 0 0 0 0 0 0 0 0 0 0 0 0 0 0 0 0 0 0 0 0 0 0 0 0 0 0 0 0 0 0 0 0 0 0 0 0 0 0 0 0 0 0 0 0 0 0 13965 13965 13965 13965 13965 13965 13965 13965 13661 13661 13370 13370 13092 12825 12568 12568 12322 12322 12322 12322 12322 12085 12085 12322 12322 12322 12322 12322 12322 12322 12085 12085 11857 11857 11637 11637 11637 11637 11637 11637 11637 11857 11857 11857 12085 12085 12085 12322 12322 12568 12825 13370 13370 13661 13661 13661 13661 13965 13965 13965 13965 13965 13965 13965 13661 13661 13370 13370 13370 13370 13370 13092 13370 13370 13661 13661 13661 13370 13370 13370 13092 13092 13092 13370 13370 13661 13661 13661 13661 13661 13661 13370 13370 13370 13370 13370 13661 13661 13661 13661 13370 13370 13370 13370 13370 13661 13661 13661 13661 13661 13661 13661 13661 13661 13661 13661 13661 13661 13661 0 0 0 0 0 0 0 0 20271 20271 20271 20271 20271 20271 20271 20271 20271 20271 19638 19638 19638 19638 19638 19638 19638 19638 19043 19043 19043 17955 16984 16984 16984 16984 16984 16984 16984 17456 17456 17456 17456 17456 17456 17456 16984 16984 16984 16984 16984 16537 0 0 17456 17456 17456 17955 17955 17955 17955 17955 17955 17955 17955 17955 17955 17456 16537 16537 16113 16113 16113 16113 16113 15710 13370 13370 13092 13092 13092 13092 13370 13370 13370 13661 14614 12825 0 0 0 14614 12322 11857 11637 11637 11426 11426 11221 11221 11221 11221
    0 0 0 0 0 0 0 0 0 0 0 0 0 0 0 0 0 0 0 0 0 0 0 0 0 0 0 0 0 0 0 0 0 0 0 0 0 0 0 0 0 0 0 0 0 0 0 0 0 0 0 0 0 0 0 0 0 0 0 0 0 0 0 0 0 0 0 0 0 0 0 0 0 0 0 0 0 0 7663 7481 7393 7393 7307 7223 7141 7141 7061 7061 6982 6905 6830 6757 6685 6685 6615 6546 6546 0 0 0 0 0 0 0 0 0 0 0 0 0 0 0 0 0 0 0 0 0 0 0 0 0 7855 7954 7954 7954 7954 7954 7954 7954 7855 7954 7954 7954 7954 7954 7954 8056 8056 8056 7954 0 0 0 0 0 0 0 0 0 0 0 0 0 0 0 0 0 0 0 0 0 0 0 0 0 0 0 0 0 0 0 0 0 0 0 0 0 0 0 0 0 0 0 0 0 0 0 0 0 0 0 0 12322 12322 12322 12322 12322 12322 12085 11857 12085 12085 12322 12322 12568 12568 12825 12825 12825 12825 12825 12825 12825 12825 13092 13092 13092 13092 13092 13092 13092 13092 12825 12825 13092 13092 13092 0 0 0 0 0 0 0 0 0 0 0 0 0 0 0 0 0 0 0 0 0 0 0 0 0 0 0 0 0 0 0 0 0 0 0 0 0 0 0 0 0 0 0 0 0 0 0 0 0 0 0 0 0 0 0 0 0 0 0 0 0 0 0 0 0 13965 13965 13965 13965 13965 13965 13965 13965 13965 13661 13370 13370 13092 12825 12568 12568 12322 12322 12322 12322 12322 12322 12322 12322 12322 12322 12322 12322 12322 12322 12322 12085 12085 11857 11857 11637 11637 11637 11637 11637 11637 11857 11857 12085 12085 12085 12085 12322 12568 12568 12825 13092 13370 13370 13661 13965 13965 13965 13965 13965 13965 13965 13965 13661 13661 13370 13370 13370 13370 13370 13092 13092 13370 13661 13661 13661 13661 13370 13370 13092 13092 13092 13092 13370 13370 13661 13661 13661 13661 13661 13370 13370 13370 13370 13370 13370 13661 13661 13370 13370 13370 13370 13370 13370 13370 13661 13661 13661 13661 13661 13661 13661 13661 13370 13370 13370 13370 13370 0 0 0 0 0 0 0 0 0 20271 20271 20271 19638 19638 19638 19638 19638 19638 19043 19043 19043 19043 19043 19043 19043 19043 19043 19043 18483 17955 17456 16984 16984 16984 17456 17456 17456 17456 17456 17456 17456 17456 17456 17456 17456 16984 16984 16984 16984 16537 16113 0 17456 17456 17456 17456 17456 17456 17955 17955 17955 17955 17955 17955 17955 16984 16537 16113 16113 16113 16113 16113 16113 15710 14962 13965 13370 13370 13092 13092 13092 13370 13370 13370 13661 13965 13370 14282 0 0 14614 12568 12085 11857 11637 11426 11221 11221 11221 11221 11221
    0 0 0 0 0 0 0 0 0 0 0 0 0 0 0 0 0 0 0 0 0 0 0 0 0 0 0 0 0 0 0 0 0 0 0 0 0 0 0 0 0 0 0 0 0 0 0 0 0 0 0 0 0 0 0 0 0 0 0 0 0 0 0 0 0 0 0 0 0 0 0 0 0 0 0 0 0 0 7393 7307 7307 7223 7223 7141 7061 7061 6982 6905 6905 6830 6757 6685 6615 6546 6546 6478 6478 6412 0 0 0 0 0 0 0 0 0 0 0 0 0 0 0 0 0 0 0 0 0 0 0 0 0 7954 7954 7954 7954 7954 7954 7954 7954 7855 7855 7855 7855 7954 7954 7954 7954 7954 7855 0 0 0 0 0 0 0 0 0 0 0 0 0 0 0 0 0 0 0 0 0 0 0 0 0 0 0 0 0 0 0 0 0 0 0 0 0 0 0 0 0 0 0 0 0 0 0 0 0 0 0 12322 12322 12322 12322 12322 12568 12568 12568 12568 12568 12568 12568 12568 12568 12825 12825 12825 12825 12825 12825 12825 12825 13092 13092 13092 13092 13092 13092 13092 13092 12825 12825 12825 12825 12825 0 0 0 0 0 0 0 0 0 0 0 0 0 0 0 0 0 0 0 0 0 0 0 0 0 0 0 0 0 0 0 0 0 0 0 0 0 0 0 0 0 0 0 0 0 0 0 0 0 0 0 0 0 0 0 0 0 0 0 0 0 0 0 0 0 0 13965 13965 13965 13965 13965 13965 13965 13965 13965 13661 13370 13370 13092 12825 12568 12568 12322 12322 12322 12322 12322 12322 12322 12322 12322 12322 12322 12322 12322 12322 12322 12322 12085 12085 11857 11857 11857 11637 11637 11637 11857 11857 12085 12085 12322 12322 12322 12322 12568 12568 12825 13092 13370 13370 13661 13661 13965 13965 13965 13965 13965 13661 13661 13661 13370 13370 13370 13370 13370 13370 13092 13370 13661 13965 13965 13661 13661 13370 13370 13092 13092 13092 13092 13370 13370 13661 13661 13661 13661 13661 13370 13370 13370 13370 13370 13370 13370 13370 13370 13370 13370 13370 13370 13370 13370 13661 13661 13661 13661 13661 13661 13661 13370 13370 13370 13370 13092 13370 0 0 0 0 18483 18483 18483 18483 18483 18483 19043 19043 19043 19043 19043 19043 19043 19043 19043 18483 18483 18483 18483 18483 18483 18483 18483 18483 17955 17955 17456 16984 16984 16984 17456 17456 17456 17456 17456 17456 17456 17456 17456 16984 16984 16984 16984 16537 16537 16537 16113 15710 17456 17456 17456 17456 17456 17456 17456 17955 17955 17955 17456 16984 16537 15710 15710 15327 15710 15710 16113 15710 15710 14962 14614 13661 13370 13370 13092 13092 13092 13092 13092 13370 13370 13661 13370 14282 0 0 14614 12568 12085 11857 11637 11426 11221 11221 11221 11221 11221
    0 0 0 0 0 0 0 0 0 0 0 0 0 0 0 0 0 0 0 0 0 0 0 0 0 0 0 0 0 0 0 0 0 0 0 0 0 0 0 0 0 0 0 0 0 0 0 0 0 0 0 0 0 0 0 0 0 0 0 0 0 0 0 0 0 0 0 0 0 0 0 0 0 0 0 0 0 7141 7141 7141 7141 7141 7061 7061 6982 6905 6905 6830 6757 6757 6685 6615 6546 6478 6478 6412 6347 6284 6222 0 0 0 0 0 0 0 0 0 0 0 0 0 0 0 0 0 0 0 0 0 0 0 8056 7954 7954 7954 7954 7954 7954 7954 7954 7855 7855 7855 7855 7855 7855 7855 7855 7855 7855 7758 0 0 0 0 0 0 0 0 0 0 0 0 0 0 0 0 0 0 0 0 0 0 0 0 0 0 0 0 0 0 0 0 0 0 0 0 0 0 0 0 0 0 0 0 0 0 0 0 12322 12322 12322 12322 12322 12322 12322 12568 12568 12568 12568 12568 12568 12568 12825 12825 12825 12825 12825 12825 12825 12825 12825 12825 13092 13092 13092 13370 13370 13370 13092 13092 13092 12825 12825 12825 12825 0 0 0 0 0 0 0 0 0 0 0 0 0 0 0 0 0 0 0 0 0 0 0 0 0 0 0 0 0 0 0 0 0 0 0 0 0 0 0 0 0 0 0 0 0 0 0 0 0 0 0 0 0 0 0 0 0 0 0 0 0 0 0 0 0 0 13965 13965 13965 13965 13965 13965 13965 13965 13965 13661 13370 13370 13092 12825 12568 12568 12322 12322 12322 12322 12322 12322 12322 12322 12322 12322 12322 12322 12322 12322 12322 12322 12322 12085 12085 11857 11857 11857 11857 11857 11857 11857 12085 12085 12322 12322 12322 12322 12568 12568 12825 13092 13092 13370 13370 13661 13661 13661 13661 13661 13661 13661 13661 13370 13370 13370 13370 13370 13092 13370 13370 13370 13661 13965 13965 13661 13661 13370 13092 13092 13092 13092 13092 13370 13370 13661 13661 13661 13661 13370 13370 13370 13370 13370 13370 13370 13370 13370 13370 13370 13370 13370 13370 13370 13370 13661 13661 13661 13661 13661 13661 13370 13370 13370 13092 13092 13092 13092 0 0 0 0 18483 18483 18483 18483 18483 17955 18483 18483 18483 18483 19043 18483 18483 18483 18483 18483 18483 18483 18483 18483 18483 18483 17955 17955 17955 17456 17456 16984 16984 16984 17456 17456 17456 17456 17456 17456 17456 17456 16984 16984 16984 16537 16537 16537 16113 16113 16113 16537 17456 17456 17456 17456 17456 17456 17456 17456 17456 16984 16537 15710 15327 14962 14962 14962 15327 15327 15327 15327 14962 14614 14282 13661 13370 13370 13092 13092 13092 13092 12825 13092 13092 13092 13370 13965 0 0 14614 12322 12085 11857 11637 11426 11221 11221 11221 11426 11426
    0 0 0 0 0 0 0 0 0 0 0 0 0 0 0 0 0 0 0 0 0 0 0 0 0 0 0 0 0 0 0 0 0 0 0 0 0 0 0 0 0 0 0 0 0 0 0 0 0 0 0 0 0 0 0 0 0 0 0 0 0 0 0 0 0 0 0 0 0 0 0 0 0 0 0 0 0 7141 7061 7061 7061 6982 6982 6905 6905 6830 6757 6757 6685 6685 6615 6546 6478 6478 6412 6347 6284 6222 6161 6101 6101 0 0 0 0 0 0 0 0 0 0 0 0 0 0 0 0 0 0 0 0 8056 8056 8056 8056 8056 8056 7954 7954 7954 7954 7855 7855 7855 7855 7758 7758 7758 7758 7758 7758 7758 0 0 0 0 0 0 0 0 0 0 0 0 0 0 0 0 0 0 0 0 0 0 0 0 0 0 0 0 0 0 0 0 0 0 0 0 0 0 0 0 0 0 0 0 0 12322 12322 12322 12322 12322 12322 12322 12322 12322 12322 12568 12568 12568 12568 12568 12568 12825 12825 12825 12825 12825 12825 12825 12825 12825 12825 12825 13092 13092 13370 13370 13370 13370 13370 13092 13092 12825 12825 12568 0 0 0 0 0 0 0 0 0 0 0 0 0 0 0 0 0 0 0 0 0 0 0 0 0 0 0 0 0 0 0 0 0 0 0 0 0 0 0 0 0 0 0 0 0 0 0 0 0 0 0 0 0 0 0 0 0 0 0 0 0 0 0 0 0 0 0 13965 13965 13965 13965 13965 13965 13965 13965 13661 13661 13370 13370 13092 12825 12568 12568 12322 12322 12322 12322 12322 12322 12322 12322 12322 12322 12322 12322 12322 12322 12322 12322 12322 12322 12085 12085 11857 11857 11857 11857 11857 12085 12085 12085 12322 12322 12322 12322 12322 12568 12825 12825 13092 13092 13370 13370 13370 13661 13661 13661 13661 13661 13370 13370 13370 13370 13370 13092 13092 13370 13370 13370 13661 13965 13661 13661 13661 13370 13092 13092 13092 13092 13092 13370 13370 13661 13661 13661 13370 13370 13370 13370 13370 13370 13370 13370 13370 13370 13370 13370 13370 13370 13370 13370 13370 13661 13661 13661 13661 13661 13370 13370 13370 13370 13092 13092 13092 13092 0 0 0 17955 18483 18483 18483 18483 18483 17955 17955 18483 18483 18483 18483 18483 18483 18483 18483 18483 18483 18483 17955 17955 17955 17955 17955 17955 17456 17456 16984 16984 16984 16984 17456 17456 17456 17456 17456 17456 17456 16984 16984 16984 16537 16537 16537 16113 16113 16113 16113 16537 16984 17456 17456 16984 16984 16984 16984 16984 16113 15327 14962 14614 14282 14614 14614 14962 14962 14962 14962 14962 14614 14282 13965 13661 13370 13370 13092 13092 13092 13092 12825 13092 13092 13092 13370 13965 0 0 13661 12322 11857 11857 11637 11426 11221 11221 11426 11426 11637
    0 0 0 0 0 0 0 0 0 0 0 0 0 0 0 0 0 0 0 0 0 0 0 0 0 0 0 0 0 0 0 0 0 0 0 0 0 0 0 0 0 0 0 0 0 0 0 0 0 0 0 0 0 0 0 0 0 0 0 0 0 0 0 0 0 0 0 0 0 0 0 0 0 0 0 0 0 7141 7061 6982 6982 6905 6830 6830 6757 6757 6685 6685 6615 6546 6546 6478 6412 6412 6347 6284 6222 6161 6101 6042 6042 5985 0 0 0 0 0 0 0 0 0 0 0 0 0 0 0 0 0 0 8268 8161 8161 8161 8056 8056 8056 8056 7954 7954 7954 7855 7855 7758 7758 7758 7663 7663 7663 7663 7663 7663 0 0 0 0 0 0 0 0 0 0 0 0 0 0 0 0 0 0 0 0 0 0 0 0 0 0 0 0 0 0 0 0 0 0 0 0 0 0 0 0 0 0 0 0 12322 12322 12322 12322 12322 12322 12322 12322 12322 12322 12322 12322 12568 12568 12568 12568 12568 12825 12825 12825 12825 12825 12825 12825 12825 12825 12825 12825 13092 13092 13370 13370 13661 13661 13370 13370 13370 13092 12825 0 0 0 0 0 0 0 0 0 0 0 0 0 0 0 0 0 0 0 0 0 0 0 0 0 0 0 0 0 0 0 0 0 0 0 0 0 0 0 0 0 0 0 0 0 0 0 0 0 0 0 0 0 0 0 0 0 0 0 0 0 0 0 0 0 0 0 0 0 0 0 0 0 0 13965 13965 13661 13661 13370 13092 12825 12825 12568 12322 12322 12322 12322 12322 12322 12322 12322 12322 12322 12322 12322 12322 12322 12322 12322 12322 12322 12322 12085 12085 11857 11857 11857 11857 11857 11857 12085 12085 12322 12322 12322 12322 12322 12568 12568 12825 13092 13092 13092 13370 13370 13370 13370 13370 13370 13370 13370 13370 13370 13370 13092 13092 13092 13370 13370 13370 13661 13661 13661 13661 13370 13370 13092 13092 13092 13092 13092 13370 13370 13661 13661 13661 13370 13370 13370 13370 13370 13370 13370 13370 13370 13370 13370 13370 13092 13370 13370 13370 13370 13370 13370 13370 13661 13661 13370 13370 13370 13370 13092 13092 13092 12825 0 0 0 17955 18483 18483 18483 18483 18483 17955 17955 18483 18483 18483 18483 18483 17955 17955 17955 17955 17955 17955 17955 17955 17955 17955 17955 17456 17456 17456 16984 16984 16984 16984 17456 17456 17456 17456 17456 17456 16984 16984 16984 16984 16537 16537 16113 16113 16113 16113 16113 16537 16984 16984 16984 16984 16984 16984 16537 16113 14962 14614 14282 14282 14282 14282 14614 14614 14614 14614 14614 14614 14282 13965 13661 13370 13370 13092 13092 13092 13092 13092 12825 13092 13092 13092 13370 13661 0 0 12568 11857 11637 11637 11637 11426 11221 11426 11637 11857 11857
    0 0 0 0 0 0 0 0 0 0 0 0 0 0 0 0 0 0 0 0 0 0 0 0 0 0 0 0 0 0 0 0 0 0 0 0 0 0 0 0 0 0 0 0 0 0 0 0 0 0 0 0 0 0 0 0 0 0 0 0 0 0 0 0 0 0 0 0 0 0 0 0 0 0 0 0 0 7141 7061 6982 6905 6830 6830 6757 6685 6685 6615 6615 6546 6478 6412 6412 6347 6284 6284 6222 6161 6101 6042 6042 6042 5985 5985 0 0 0 0 0 0 0 0 0 0 0 0 0 0 0 0 8268 8268 8268 8161 8161 8161 8161 8056 8056 7954 7954 7855 7855 7855 7758 7758 7663 7663 7663 7571 7571 7571 7663 0 0 0 0 0 0 0 0 0 0 0 0 0 0 0 0 0 0 0 0 0 0 0 0 0 0 0 0 0 0 0 0 0 0 0 0 0 0 0 0 0 0 0 12322 12322 12322 12322 12322 12322 12322 12322 12322 12322 12322 12322 12322 12568 12568 12568 12568 12568 12825 12825 12825 12825 12825 12825 12825 12825 12825 12825 12825 13092 13092 13370 13370 13661 13661 13661 13370 13370 13370 0 0 0 0 0 0 0 0 0 0 0 0 0 0 0 0 0 0 0 0 0 0 0 0 0 0 0 0 0 0 0 0 0 0 0 0 0 0 0 0 0 0 0 0 0 0 0 0 0 0 0 0 0 0 0 0 0 0 0 0 0 0 0 0 0 0 0 0 0 0 0 0 0 0 0 0 13661 13661 13370 13370 13092 12825 12825 12568 12322 12322 12322 12322 12322 12322 12322 12322 12322 12322 12322 12322 12322 12322 12322 12322 12322 12085 12085 12085 11857 11857 11857 11637 11857 11857 11857 12085 12085 12085 12322 12322 12322 12322 12322 12568 12825 13092 13092 13370 13370 13370 13370 13370 13370 13370 13370 13370 13370 13370 13370 13370 13370 13370 13370 13370 13370 13370 13661 13661 13661 13370 13370 13092 13092 13092 13092 13370 13370 13370 13661 13661 13370 13370 13370 13370 13370 13370 13370 13370 13370 13370 13370 13370 13092 13092 13370 13370 13370 13370 13370 13370 13370 13370 13370 13370 13370 13370 13370 13092 13092 13092 12825 0 0 0 17955 17955 17955 17955 17955 17955 17955 17955 17955 17955 17955 17955 17955 17955 17955 17955 17955 17955 17955 17955 17955 17955 17955 17955 17456 17456 17456 16984 16984 16984 16537 17456 17456 17456 16984 16984 16984 16984 16537 16537 16537 16537 16113 16113 16113 16113 16113 16113 16537 16984 16984 16984 16984 16984 16537 16113 15327 14614 14282 14282 14282 14282 14282 14282 14282 14282 14282 14282 13965 13965 13661 13370 13370 13092 13092 13092 13092 13092 13092 12825 13092 13092 13092 13092 13661 14282 14282 13370 12322 11857 11857 11637 11426 11426 11637 11857 12085 12322
    0 0 0 0 0 0 0 0 0 0 0 0 0 0 0 0 0 0 0 0 0 0 0 0 0 0 0 0 0 0 0 0 0 0 0 0 0 0 0 0 0 0 0 0 0 0 0 0 0 0 0 0 0 0 0 0 0 0 0 0 0 0 0 0 0 0 0 0 0 0 0 0 0 0 0 0 0 7141 7061 6905 6830 6757 6685 6685 6615 6615 6546 6546 6478 6412 6347 6347 6284 6222 6161 6161 6101 6042 6042 5985 5985 5985 5985 0 0 0 0 0 0 0 0 0 0 0 0 0 0 0 8379 8379 8379 8268 8268 8268 8161 8161 8056 8056 7954 7954 7855 7855 7758 7758 7663 7663 7571 7571 7571 7571 7571 7571 0 0 0 0 0 0 0 0 0 0 0 0 0 0 0 0 0 0 0 0 0 0 0 0 0 0 0 0 0 0 0 0 0 11857 11857 11857 11857 11857 11857 11857 11857 0 12322 12322 12322 12322 12322 12322 12322 12322 12322 12322 12322 12322 12322 12322 12322 12568 12568 12568 12568 12825 12825 12825 12825 12825 12825 12825 12825 12825 12825 13092 13092 13092 13370 13370 13661 13661 13661 13370 13370 0 0 0 0 0 0 0 0 0 0 0 0 0 0 0 0 0 0 0 0 0 0 0 0 0 0 0 0 0 0 0 0 0 0 0 0 0 0 0 0 0 0 0 0 0 0 0 0 0 0 0 0 0 0 0 0 0 0 0 0 0 0 0 0 0 0 0 0 0 0 0 0 0 0 0 0 0 13661 13661 13370 13370 13092 13092 12825 12568 12322 12322 12322 12085 12085 12085 12085 12085 12322 12322 12322 12322 12322 12322 12322 12085 12085 12085 12085 11857 11857 11637 11637 11637 11637 11857 11857 11857 12085 12085 12085 12085 12322 12322 12322 12568 12825 13092 13092 13370 13370 13370 13370 13370 13370 13370 13370 13370 13370 13370 13370 13370 13370 13370 13370 13370 13370 13370 13370 13370 13370 13370 13370 13092 13092 13092 13092 13370 13370 13370 13661 13370 13370 13370 13370 13370 13370 13370 13370 13370 13370 13370 13370 13092 13092 13092 13370 13370 13370 13370 13370 13370 13370 13370 13370 13661 13661 13661 13661 13370 13965 14282 15710 15710 15710 0 17955 17955 17955 17955 17955 17955 17955 17955 17955 17955 17955 17955 17955 17955 17955 17955 17955 17955 17955 17955 17955 17955 17955 17456 17456 17456 17456 17456 16984 16537 16537 17456 17456 17456 16984 16984 16537 16537 16113 16113 16113 16113 16113 16113 16113 16113 16113 16113 16537 16537 16984 16537 16537 16537 16113 15327 14614 14282 14282 14282 14282 14282 14282 14282 14282 14282 14282 13965 13965 13661 13370 13370 13370 13092 13092 13092 13092 13092 12825 12825 13092 13092 13092 13370 13965 14282 14282 13965 13092 12322 12085 11857 11637 11637 12322 12322 12568 12568
    0 0 0 0 0 0 0 0 0 0 0 0 0 0 0 0 0 0 0 0 0 0 0 0 0 0 0 0 0 0 0 0 0 0 0 0 0 0 0 0 0 0 0 0 0 0 0 0 0 0 0 0 0 0 0 0 0 0 0 0 0 0 0 0 0 0 0 0 0 0 0 0 0 0 0 0 0 0 6905 6830 6757 6685 6615 6615 6615 6546 6546 6478 6412 6347 6347 6284 6222 6161 6161 6101 6042 6042 5985 5985 5985 5985 5985 0 0 0 0 0 0 0 0 0 0 0 0 0 0 0 8379 8379 8379 8268 8268 8268 8268 8161 8161 8056 7954 7954 7855 7855 7758 7663 7663 7571 7571 7481 7481 7481 7481 7481 0 0 0 0 0 0 0 0 0 0 0 0 0 0 0 0 0 0 0 0 0 0 0 0 0 0 0 0 0 11857 11857 11857 11857 11857 11857 11857 11857 11857 11857 11857 11857 12085 12085 12322 12322 12322 12322 12322 12322 12322 12322 12322 12322 12322 12322 12322 12322 12568 12568 12568 12568 12825 12825 12825 13092 13092 13092 13092 13092 13092 13092 13092 13370 13370 13370 13661 13661 13661 13661 0 0 0 0 0 0 0 0 0 0 0 0 0 0 0 0 0 0 0 0 0 0 0 0 0 0 0 0 0 0 0 0 0 0 0 0 0 0 0 0 0 0 0 0 0 0 0 0 0 0 0 0 0 0 0 0 0 0 0 0 0 0 0 0 0 0 0 0 0 0 0 0 0 0 0 0 0 0 0 13661 13661 13370 13370 13092 12825 12825 12568 12322 12085 12085 12085 12085 12085 12085 12085 12085 12085 12085 12322 12085 12085 12085 12085 11857 11857 11857 11637 11637 11637 11637 11637 11637 11857 11857 11857 12085 12085 12085 12085 12322 12322 12322 12568 12825 13092 13092 13370 13370 13370 13370 13370 13370 13370 13370 13370 13370 13370 13370 13370 13370 13370 13370 13370 13370 13370 13370 13370 13370 13370 13370 13370 13092 13370 13370 13370 13370 13370 13370 13370 13370 13370 13370 13370 13370 13370 13370 13370 13370 13370 13092 13092 13092 13092 13370 13370 13370 13370 13370 13370 13370 13370 13370 13661 13661 13661 13661 14282 15327 15710 15710 15710 15710 15710 17456 17955 17955 17955 17955 17955 17955 17955 17955 17955 17955 17955 17955 17955 17955 17955 17955 17955 17955 17955 17955 17955 17955 17456 17456 17456 17456 17456 16984 0 0 17456 17456 16984 16537 16537 16113 15710 15710 15710 15710 15710 15710 15710 15710 16113 16113 16113 16537 16537 16537 16113 16113 15710 15710 14962 14614 14282 14282 14282 14282 14282 14282 14282 14282 14282 13965 13965 13965 13661 13370 13370 13370 13092 13092 13092 13092 12825 12825 12825 13092 13092 13370 13661 13965 14614 14614 13965 13370 12825 12568 12322 11857 12322 13092 13092 12825 12825
    0 0 0 0 0 0 0 0 0 0 0 0 0 0 0 0 0 0 0 0 0 0 0 0 0 0 0 0 0 0 0 0 0 0 0 0 0 0 0 0 0 0 0 0 0 0 0 0 0 0 0 0 0 0 0 0 0 0 0 0 0 0 0 0 0 0 0 0 0 0 0 0 0 0 0 0 0 0 0 6685 6685 6615 6615 6615 6546 6546 6478 6478 6412 6347 6284 6222 6161 6101 6101 6042 5985 5985 5985 5928 5928 5928 5985 0 0 0 0 0 0 0 0 0 0 0 0 0 0 8379 8379 8379 8379 8379 8268 8268 8268 8161 8161 8056 8056 7954 7855 7855 7758 7663 7663 7571 7481 7481 7481 7393 7393 7393 0 0 0 0 0 0 0 0 0 0 0 0 0 0 0 0 0 0 0 0 0 0 0 0 0 0 0 11857 11857 11857 11857 11857 11857 11857 11857 11857 11857 11857 11857 11857 11857 11857 12085 12085 12322 12322 12322 12322 12322 12322 12322 12322 12322 12322 12322 12322 12322 12322 12568 12568 12568 12825 12825 13092 13092 13092 13092 13092 13092 13092 13092 13092 13370 13370 13661 13661 13661 0 0 0 0 0 0 0 0 0 0 0 0 0 0 0 0 0 0 0 0 0 0 0 0 0 0 0 0 0 0 0 0 0 0 0 0 0 0 0 0 0 0 0 0 0 0 0 0 0 0 0 0 0 0 0 0 0 0 0 0 0 0 0 0 0 0 0 0 0 0 0 0 0 0 0 0 0 0 0 0 0 13661 13661 13370 13370 13092 12825 12825 12568 12322 12085 12085 11857 11857 11857 11857 11857 12085 12085 12085 12085 12085 12085 11857 11857 11857 11637 11637 11637 11426 11426 11426 11637 11637 11637 11857 11857 12085 12085 12085 12085 12322 12322 12322 12568 12825 13092 13092 13370 13370 13370 13092 13092 13092 13092 13092 13092 13092 13370 13370 13370 13370 13370 13370 13370 13370 13370 13370 13370 13370 13370 13370 13370 13370 13370 13370 13370 13370 13370 13370 13370 13370 13370 13370 13370 13370 13370 13370 13370 13092 13092 13092 13092 13092 13092 13092 13092 13092 13092 13092 13370 13370 13370 13370 13661 13661 13965 13965 14962 15710 15710 15710 15710 16113 16113 16537 16984 17456 17456 17456 17456 17456 17456 17456 17955 17955 17955 17955 17955 17955 17955 17955 17955 17955 17955 17955 17955 17456 17456 17456 17456 17456 17456 16984 0 0 17456 17456 16984 16537 16113 15710 15710 15327 15327 15710 15710 15710 15710 15710 15710 15710 16113 16113 16113 16113 16113 15710 15327 14962 14614 14282 14282 14282 14282 14282 14282 14282 14282 14282 14282 13965 13965 13965 13661 13661 13370 13370 13092 13092 13092 13092 13092 12825 13092 13092 13370 13370 13661 14282 14614 14614 14282 13965 13661 13370 13092 13092 13370 13661 13661 13370 13092
    0 0 0 0 0 0 0 0 0 0 0 0 0 0 0 0 0 0 0 0 0 0 0 0 0 0 0 0 0 0 0 0 0 0 0 0 0 0 0 0 0 0 0 0 0 0 0 0 0 0 0 0 0 0 0 0 0 0 0 0 0 0 0 0 0 0 0 0 0 0 0 0 0 0 0 0 0 0 0 0 6615 6615 6615 6615 6546 6546 6478 6412 6347 6284 6222 6161 6101 6101 6042 5985 5985 5928 5928 5928 5928 5928 5985 0 0 0 0 0 0 0 0 0 0 0 0 0 0 8379 8379 8379 8379 8379 8379 8268 8268 8268 8161 8161 8056 7954 7855 7855 7758 7663 7663 7571 7481 7481 7393 7393 7393 7393 0 0 0 0 0 0 0 0 0 0 0 0 0 0 0 0 0 0 0 0 0 0 0 0 0 0 11857 11857 11857 11857 11857 11857 11857 11857 11857 11857 11857 11857 11857 11857 11857 11857 12085 12085 12322 12322 12322 12322 12322 12322 12322 12322 12322 12322 12322 12322 12322 12322 12568 12568 12568 12825 12825 13092 13092 13092 13092 13092 13092 13092 13092 13370 13370 13661 13661 13661 13965 14282 14282 14282 14282 14282 14282 14282 0 0 0 0 0 0 0 0 0 0 0 0 0 0 0 0 0 0 0 0 0 0 0 0 0 0 0 0 0 0 0 0 0 0 0 0 0 0 0 0 0 0 0 0 0 0 0 0 0 0 0 0 0 0 0 0 0 0 0 0 0 0 0 0 0 0 0 0 0 0 0 0 0 0 13661 13661 13370 13370 13092 12825 12825 12568 12322 12085 11857 11857 11857 11857 11857 11857 11857 11857 11857 11857 11857 11857 11857 11857 11637 11637 11426 11426 11426 11426 11426 11426 11637 11637 11857 11857 12085 12085 12085 12085 12322 12322 12322 12568 12825 13092 13092 13370 13370 13370 13092 13092 13092 13092 13092 13092 13092 13370 13370 13370 13370 13370 13370 13370 13370 13092 13092 13092 13092 13092 13370 13370 13370 13370 13370 13370 13370 13370 13370 13370 13370 13370 13370 13092 13092 13092 13092 13092 13092 13092 13092 13092 13092 13092 13092 13092 13092 13092 13370 13370 13370 13370 13370 13661 13965 13965 13965 14962 15710 15710 15710 15710 16113 16113 16537 16984 16984 16984 17456 17456 17456 17456 17456 17456 17456 17955 17955 17955 17955 17955 17955 17955 17955 17955 17456 17456 17456 17456 17456 16984 16984 16984 16984 0 0 17955 17456 16984 16537 16113 15327 14962 14962 14962 15327 15327 15710 15710 15710 15710 15710 16113 16113 15710 15710 15710 15327 14962 14962 14614 14282 14282 14282 14282 14282 14282 14282 14282 14282 14282 13965 13965 13965 13661 13661 13370 13370 13092 13092 13092 13092 13092 13092 13092 13092 13370 13661 13965 14282 14614 14614 14614 14614 14282 14282 14282 13965 13965 13965 13661 13661 13370
    0 0 0 0 0 0 0 0 0 0 0 0 0 0 0 0 0 0 0 0 0 0 0 0 0 0 0 0 0 0 0 0 0 0 0 0 0 0 0 0 0 0 0 0 0 0 0 0 0 0 0 0 0 0 0 0 0 0 0 0 0 0 0 0 0 0 0 0 0 0 0 0 0 0 0 0 0 0 0 0 6615 6615 6615 6546 6546 6546 6478 6412 6347 6284 6222 6161 6101 6042 6042 5985 5928 5928 5928 5928 5873 5928 5928 0 0 0 0 0 0 0 0 0 0 0 0 0 0 8379 8379 8379 8379 8379 8379 8268 8268 8268 8161 8161 8056 7954 7855 7855 7758 7663 7571 7571 7481 7393 7393 7393 7393 7393 0 0 0 0 0 0 0 0 0 0 0 0 0 0 0 0 0 0 0 0 0 0 0 0 0 11857 11857 11857 11857 11857 11857 11857 11857 11857 11857 11857 11857 11857 11857 11857 11857 11857 12085 12085 12085 12322 12322 12322 12322 12322 12322 12322 12322 12085 12322 12322 12322 12322 12568 12568 12568 12825 12825 13092 13092 13092 13092 13092 13092 13092 13370 13370 13661 13965 13965 13965 14282 14282 14282 14282 14282 14282 14282 14282 14614 14614 14614 0 0 0 0 0 0 0 0 0 0 0 0 0 0 0 0 0 0 0 0 0 0 0 0 0 0 0 0 0 0 0 0 0 0 0 0 0 0 0 0 0 0 0 0 0 0 0 0 0 0 0 0 0 0 0 0 0 0 0 0 0 0 0 0 0 0 0 0 0 0 0 0 13661 13370 13370 13092 13092 12825 12322 12085 11857 11857 11637 11637 11637 11637 11637 11857 11857 11857 11857 11857 11857 11857 11637 11637 11637 11426 11426 11426 11426 11426 11426 11637 11637 11857 11857 12085 12085 12085 12322 12322 12322 12322 12568 12825 13092 13092 13370 13370 13092 13092 13092 13092 13092 13092 13092 13092 13370 13370 13370 13370 13370 13370 13370 13092 13092 13092 13092 13092 13092 13092 13370 13370 13370 13370 13370 13370 13370 13370 13370 13370 13092 13092 13092 13092 13092 13092 13092 13092 13092 13092 13092 13092 13092 13092 13092 13092 13092 13370 13370 13370 13370 13370 13661 13965 13965 13965 15327 15710 16113 16113 16113 16113 16113 16113 16537 16537 16984 16984 16984 16984 16984 17456 17456 17456 17456 17955 17955 17955 17955 17456 17456 17456 17456 17456 17456 17456 16984 16984 16984 16984 16984 16537 16113 0 17955 17456 17456 16113 15710 14962 14962 14962 14962 14962 15327 15327 15710 15710 15710 15710 15710 15710 15710 15327 14962 14962 14614 14614 14282 14282 14282 14282 14282 14282 14282 14282 14282 14282 14282 13965 13965 13965 13661 13661 13370 13370 13370 13092 13092 13092 13092 13092 13092 13370 13661 13965 14282 14614 14614 14614 14614 14614 14614 14614 14614 14282 14282 13965 13965 13661 13661
    0 0 0 0 0 0 0 0 0 0 0 0 0 0 0 0 0 0 0 0 0 0 0 0 0 0 0 0 0 0 0 0 0 0 0 0 0 0 0 0 0 0 0 0 0 0 0 0 0 0 0 0 0 0 0 0 0 0 0 0 0 0 0 0 0 0 0 0 0 0 0 0 0 0 0 0 0 0 0 0 6615 6615 6615 6546 6546 6546 6478 6412 6347 6222 6161 6101 6101 6042 5985 5985 5928 5928 5873 5873 5873 5873 0 0 0 0 0 0 0 0 0 0 0 0 0 0 0 8379 8379 8379 8379 8379 8379 8268 8268 8268 8268 8161 8056 7954 7954 7855 7758 7663 7571 7571 7481 7393 7393 7393 7307 7307 0 0 0 0 0 0 0 0 0 0 0 0 0 0 0 0 0 0 0 0 0 0 0 0 0 11857 11857 11857 11857 11857 11857 11857 11857 11857 11857 11857 11857 11857 11857 11857 11857 11857 11857 12085 12085 12085 12322 12322 12322 12322 12322 12322 12322 12322 12322 12322 12322 12322 12568 12568 12568 12825 12825 13092 13092 13092 13092 13092 13092 13370 13370 13661 13965 14282 14282 14282 14282 14282 14282 14282 14282 14282 14282 14282 14282 14614 14614 0 0 0 0 0 0 0 0 0 0 0 0 0 0 0 0 0 0 0 0 0 0 0 0 0 0 0 0 0 0 0 0 0 0 0 0 0 0 0 0 0 0 0 0 0 0 0 0 0 0 0 0 0 0 0 0 0 0 0 0 0 0 0 0 0 0 0 0 0 0 0 13370 13370 13370 13370 13092 13092 12825 12322 12085 11857 11637 11637 11426 11637 11637 11637 11637 11857 11857 11857 11857 11637 11637 11637 11637 11637 11426 11426 11426 11426 11426 11426 11637 11637 11857 11857 12085 12085 12085 12322 12322 12322 12322 12568 12825 13092 13092 13370 13370 13092 13092 13092 13092 13092 13092 13092 13092 13370 13370 13370 13370 13370 13370 13370 13092 13092 13092 13092 13092 13092 13092 13370 13370 13370 13370 13370 13370 13370 13370 13370 13092 13092 13092 13092 13092 13092 13092 13092 13092 13092 13092 13092 13092 13092 13092 13092 13092 13370 13370 13370 13370 13370 13370 13661 13965 13965 13965 15710 15710 16113 16113 16113 16113 16113 16113 16537 16537 16537 16984 16984 16984 16984 16984 16984 17456 17456 17456 17456 17456 17456 17456 16984 16984 16984 16984 16984 16984 16984 16984 16984 16537 16537 16113 16113 15710 0 0 0 15327 14962 14962 14962 14962 14962 14962 15327 15327 15710 15710 15710 16113 15710 15710 15327 14962 14962 14614 14614 14282 14282 14282 14282 14282 14282 14282 14282 14282 14282 14282 14282 13965 13965 13965 13661 13661 13370 13370 13370 13092 13092 13092 13092 13092 13370 13370 13661 13965 14282 14614 14962 14962 14962 14962 14614 14614 14614 14282 14282 14282 13965 13965 13965
    0 0 0 0 0 0 0 0 0 0 0 0 0 0 0 0 0 0 0 0 0 0 0 0 0 0 0 0 0 0 0 0 0 0 0 0 0 0 0 0 0 0 0 0 0 0 0 0 0 0 0 0 0 0 0 0 0 0 0 0 0 0 0 0 0 0 0 0 0 0 0 0 0 0 0 0 0 0 0 0 6615 6615 6615 6615 6615 6546 0 0 6161 6161 6101 6101 6042 6042 5985 5928 5928 5873 5873 5873 5873 5873 0 0 0 0 0 0 0 0 0 0 0 0 0 0 0 8379 8379 8379 8379 8379 8379 8268 8268 8268 8268 8161 8056 8056 7954 7855 7758 7663 7663 7571 7481 7393 7393 7393 7307 7307 0 0 0 0 0 0 0 0 0 0 0 0 0 0 0 0 0 0 0 0 0 0 0 11857 11857 11857 11857 11857 11857 11857 11857 11857 11857 11857 11857 11857 11857 11857 11857 11857 11857 11857 11857 11857 12085 12085 12085 12322 12322 12322 12322 12322 12322 12322 12322 12322 12322 12322 12568 12568 12568 12568 12825 12825 13092 13092 13092 13092 13092 13092 13370 13965 14282 14282 14282 14282 14282 14282 14282 14282 14282 14282 14282 14282 14282 14282 14614 0 0 0 0 0 0 0 0 0 0 0 0 0 0 0 0 0 0 0 0 0 0 0 0 0 0 0 0 0 0 0 0 0 0 0 0 0 0 0 0 0 0 0 0 0 0 0 0 0 0 0 0 0 0 0 0 0 0 0 0 0 0 0 0 0 0 0 0 0 0 13092 13370 13370 13370 13370 13092 13092 12568 12322 11857 11637 11637 11426 11426 11426 11637 11637 11637 11637 11637 11637 11637 11637 11637 11637 11637 11637 11426 11426 11426 11426 11426 11426 11637 11637 11857 11857 12085 12085 12085 12322 12322 12322 12322 12568 12825 13092 13092 13092 13092 13092 13092 13092 13092 13092 13092 13092 13092 13092 13370 13370 13370 13370 13370 13092 13092 13092 12825 12825 12825 13092 13092 13092 13370 13370 13370 13370 13370 13370 13370 13092 13092 13092 13092 13092 13092 13092 13092 13092 13092 13092 13092 13092 13092 13092 13092 13092 13092 13370 13370 13370 13370 13370 13661 13661 13661 0 0 15710 15710 16113 16113 16113 16113 16113 16113 16537 16537 16537 16537 16537 16984 16984 16984 16984 16984 17456 17456 17456 17456 16984 16984 16537 16537 16537 16537 16537 16537 16537 16537 16537 16537 16537 16113 16113 15710 15327 14962 14962 14962 14962 14962 14962 14962 14962 15327 15327 15710 15710 15710 15710 15710 15710 15710 15327 14962 14614 14282 14282 14282 14282 13965 14282 14282 14282 14282 14282 14282 14282 14282 14282 13965 13965 13965 13661 13661 13370 13370 13370 13092 13092 13092 13092 13370 13370 13661 13965 14282 14614 14962 14962 14962 14962 14962 14962 14614 14614 14614 14282 14282 14282 13965 13965
    0 0 0 0 0 0 0 0 0 0 0 0 0 0 0 0 0 0 0 0 0 0 0 0 0 0 0 0 0 0 0 0 0 0 0 0 0 0 0 0 0 0 0 0 0 0 0 0 0 0 0 0 0 0 0 0 0 0 0 0 0 0 0 0 0 0 0 0 0 0 0 0 0 0 0 0 0 0 0 0 0 0 0 0 0 0 0 0 0 6101 6101 6101 6042 6042 5985 5928 5928 5873 5873 5873 5818 5818 0 0 0 0 0 0 0 0 0 0 0 0 0 0 0 0 8379 8379 8379 8379 8379 8268 8268 8268 8268 8161 8161 8056 7954 7855 7758 7758 7663 7571 7481 7481 7393 7393 7307 7307 0 0 0 0 0 0 0 0 0 0 0 0 0 0 0 0 0 0 0 0 0 11637 11637 11857 11857 11857 11857 11857 11857 11857 11857 11857 11857 11857 11857 11857 11857 11857 11857 11857 11857 11857 11857 11857 12085 12085 12085 12085 12322 12322 12322 12322 12322 12322 12322 12322 12322 12322 12322 12568 12568 12568 12568 12825 12825 12825 12825 13092 13092 13092 13092 13661 14282 14282 14282 14282 14282 14282 14282 14282 14282 14282 14282 14282 14282 14282 14614 0 0 0 0 0 0 0 0 0 0 12568 12568 12568 12825 12825 12825 12825 12825 0 0 0 0 0 0 0 0 0 0 0 0 0 0 0 0 0 0 0 0 0 0 0 0 0 0 0 0 0 0 0 0 0 0 0 0 0 0 0 0 0 0 13092 13092 13092 13092 13092 12825 12825 12825 12825 12825 12825 13092 13092 13092 13092 13092 13092 12568 12085 11637 11637 11426 11426 11426 11426 11426 11637 11637 11637 11637 11637 11637 11637 11637 11637 11637 11637 11426 11426 11426 11426 11426 11426 11637 11637 11857 11857 12085 12085 12085 12322 12322 12322 12568 12825 13092 13092 13092 13092 13092 13092 13092 13092 13092 13092 13092 13092 13092 13092 13370 13370 13370 13370 13370 13092 13092 13092 12825 12825 12825 12825 13092 13092 13370 13370 13370 13370 13370 13370 13092 13092 13092 13092 13092 13092 13092 13092 13092 13092 13092 13092 13092 13092 13092 13092 13092 13092 13092 13370 13370 13370 13370 13661 13661 13661 13661 13661 15710 15710 15710 16113 16113 16113 16113 16113 16113 16113 16537 16537 16537 16537 16537 16984 16984 16984 16984 16984 16984 16984 16984 16984 16537 16537 16537 16537 16537 16537 16537 16537 16537 16537 16537 16113 16113 16113 15710 15327 14962 14962 14962 14962 14962 14962 14962 15327 15327 15327 15710 15710 15710 15710 15710 15710 15327 15327 14962 14614 14282 14282 13965 13965 13965 13965 14282 14282 14282 14282 14282 14282 14282 14282 13965 13965 13965 13661 13370 13370 13370 13370 13092 13092 13370 13370 13370 13661 13661 13965 14282 14614 14962 14962 14962 14962 14962 14962 14614 14614 14614 14282 14282 14282 14282 14282
    0 0 0 0 0 0 0 0 0 0 0 0 0 0 0 0 0 0 0 0 0 0 0 0 0 0 0 0 0 0 0 0 0 0 0 0 0 0 0 0 0 0 0 0 0 0 0 0 0 0 0 0 0 0 0 0 0 0 0 0 0 0 0 0 0 0 0 0 0 0 0 0 0 0 0 0 0 0 0 0 0 0 0 0 0 0 0 0 0 0 6101 6101 6042 6042 5985 5928 5928 5873 5873 5873 0 0 0 0 0 0 0 0 0 0 0 0 0 0 0 0 0 0 0 0 0 0 0 0 0 0 0 0 0 0 0 0 0 0 0 0 0 0 0 0 0 0 0 0 0 0 0 0 0 0 0 0 0 0 0 0 0 0 0 0 0 11426 11426 11637 11637 11637 11637 11857 11857 11857 11857 11857 11857 11857 11857 11857 11857 11857 11857 11857 11857 11857 11857 11857 11857 11857 12085 12085 12085 12085 12322 12322 12322 12322 12322 12322 12322 12322 12322 12322 12322 12322 12568 12568 12568 12568 12568 12825 12825 12825 12825 12825 12825 13370 14282 14282 14282 14282 14282 14282 14282 13965 13965 13965 14282 14282 14282 14282 14614 0 0 0 0 0 0 0 0 0 12825 12825 12825 12825 12825 12825 12825 12825 12825 12825 12825 0 0 0 0 0 0 0 0 0 0 0 0 0 0 0 0 0 0 0 0 0 0 0 0 0 0 0 0 0 0 0 0 0 0 0 0 0 0 0 13092 13092 13092 13092 13092 13092 12825 12825 12825 12825 12825 12825 12825 13092 13092 13092 13092 13092 12568 11857 11426 11426 11426 11426 11426 11426 11426 11637 11637 11637 11637 11637 11637 11637 11637 11637 11637 11637 11426 11426 11426 11426 11426 11426 11637 11637 11857 11857 11857 12085 12085 12322 12322 12568 12568 12825 13092 13092 13092 13092 13092 13092 13092 13092 13092 13092 13092 13092 13370 13370 13092 13370 13370 13370 13092 13092 13092 13092 12825 12825 12825 12825 13092 13092 13092 13370 13370 13370 13370 13092 13092 13092 13092 13092 13092 13092 13092 13092 13092 13092 13092 13092 13092 13092 13092 13092 13092 13092 13370 13370 13370 13370 13370 13661 13661 13661 13661 13661 14962 15710 15710 16113 16113 16113 16113 16113 16113 16113 16113 16537 16537 16537 16537 16537 16984 16984 16984 16984 16984 16984 16537 16537 16537 16537 16113 16113 16113 16113 16537 16537 16537 16537 16113 16113 16113 16113 15710 15327 15327 14962 14962 14962 14962 14962 15327 15327 15327 15710 15710 15710 15710 15710 15710 15710 15327 14962 14962 14614 14282 13965 13965 13965 13965 13965 14282 14282 14282 14282 14282 14282 14282 14282 13965 13965 13661 13661 13370 13370 13370 13370 13092 13370 13370 13370 13370 13661 13965 13965 14282 14614 14962 14962 15327 14962 14962 14962 14614 14614 14614 14614 14282 14282 14282 14282
    0 0 0 0 0 0 0 0 0 0 0 0 0 0 0 0 0 0 0 0 0 0 0 0 0 0 0 0 0 0 0 0 0 0 0 0 0 0 0 0 0 0 0 0 0 0 0 0 0 0 0 0 0 0 0 0 0 0 0 0 0 0 0 0 0 0 0 0 0 0 0 0 0 0 0 0 0 0 0 0 0 0 0 0 0 0 0 0 0 0 0 0 0 0 0 0 0 0 0 0 0 0 0 0 0 0 0 0 0 0 0 0 0 0 0 0 0 0 0 0 0 0 0 0 0 0 0 0 0 0 0 0 0 0 0 0 0 0 0 0 0 0 0 0 0 0 0 0 0 0 0 0 0 0 0 0 0 0 0 0 0 11426 11426 11426 11426 11637 11637 11637 11857 11857 11857 11857 11857 11857 11857 11857 11857 11857 11857 11857 11857 11857 11857 11857 11857 11857 12085 12085 12085 12085 12085 12085 12322 12322 12322 12322 12322 12322 12322 12322 12322 12322 12322 12568 12568 12568 12568 12568 12568 12568 12568 12825 12825 12825 13370 14282 14282 14282 14282 14282 14282 13965 13965 13965 13965 13965 13965 13965 0 0 0 0 0 0 0 0 0 0 12825 12825 12825 12825 12825 12825 12825 12825 12825 12825 12825 12568 0 0 0 0 0 0 0 0 0 0 0 0 0 0 0 0 0 0 0 0 0 0 0 0 0 0 0 0 0 0 0 0 0 0 0 0 0 0 13092 13092 13092 13092 13092 13092 13092 12825 12825 12825 12825 12825 12825 13092 13092 13092 13092 13092 12322 11857 11426 11426 11426 11221 11221 11426 11426 11426 11637 11637 11637 11637 11637 11637 11637 11426 11426 11426 11426 11426 11426 11426 11426 11426 11637 11637 11857 11857 11857 11857 11857 12322 12568 12825 12825 13092 13092 13092 13092 13092 13092 13092 13092 13092 13092 13092 13092 13092 13370 13370 13092 13092 13092 13092 13092 13092 13092 12825 12825 12825 12825 12825 13092 13092 13092 13092 13092 13092 13092 13092 13092 13092 13092 13092 13092 13092 13092 13092 13092 13092 13092 13092 13092 13092 13092 13092 13092 13370 13370 13370 13370 13370 13661 13661 13661 13661 13661 13965 14962 15710 15710 15710 16113 16113 16113 16113 16113 16113 16113 16113 16537 16537 16537 16537 16537 16537 16984 16984 16984 16537 16537 16537 16537 16113 16113 16113 16113 16113 16113 16113 16537 16113 16113 16113 16113 15710 15710 15327 15327 14962 14962 14962 14962 14962 15327 15327 15710 15710 15710 15710 15710 15710 15710 15327 15327 14962 14614 14282 14282 13965 13965 13965 13965 13965 14282 14282 14282 14282 14282 14282 14282 13965 13965 13965 13661 13661 13370 13370 13370 13092 13370 13370 13370 13370 13661 13661 13965 14282 14614 14614 14962 14962 15327 14962 14962 14962 14962 14614 14614 14614 14614 14282 14282 14282
    0 0 0 0 0 0 0 0 0 0 0 0 0 0 0 0 0 0 0 0 0 0 0 0 0 0 0 0 0 0 0 0 0 0 0 0 0 0 0 0 0 0 0 0 0 0 0 0 0 0 0 0 0 0 0 0 0 0 0 0 0 0 0 0 0 0 0 0 0 0 0 0 0 0 0 0 0 0 0 0 0 0 0 0 0 0 0 0 0 0 0 0 0 0 0 0 0 0 0 0 0 0 0 0 0 0 0 0 0 0 0 0 0 0 0 0 0 0 0 0 0 0 0 0 0 0 0 0 0 0 0 0 0 0 0 0 0 0 0 0 0 0 0 0 0 0 0 0 0 0 0 0 0 0 0 0 0 0 0 11221 11221 11426 11426 11426 11426 11426 11637 11637 11637 11637 11637 11637 11857 11857 11857 11857 11857 11857 11857 11857 11857 11857 11857 11857 11857 11857 12085 12085 12085 12085 12085 12085 12322 12322 12322 12322 12322 12322 12322 12322 12568 12568 12568 12568 12568 12568 12568 12568 12568 12568 12568 12825 12825 12825 13092 13661 13661 13370 13370 13370 13370 13661 13965 13965 13965 13965 13965 13965 0 0 0 0 0 0 0 0 0 0 12825 12825 12825 12825 12825 12825 12825 12825 12825 12825 12825 12825 0 0 0 0 0 0 0 0 0 0 0 0 0 0 0 0 0 0 0 0 0 0 0 0 0 0 0 0 0 0 0 0 0 0 0 0 0 0 13092 13092 13092 13092 13092 13092 13092 13092 12825 12825 12825 12825 12825 12825 13092 13092 12825 12825 12322 11857 11637 11426 11426 11221 11221 11221 11426 11426 11637 11637 11637 11637 11637 11637 11637 11637 11637 11637 11426 11426 11426 11426 11426 11637 11637 11637 11637 11857 11857 11857 11857 0 13092 13092 13092 13092 13092 13092 13092 13092 13092 13092 13092 13092 13092 13092 13092 13370 13370 13370 13092 13092 13092 13092 13092 13092 13092 12825 12825 12825 12825 12825 13092 13092 13092 13092 13092 13092 13092 13092 13092 13092 13092 13092 13092 13092 13092 13092 13092 13092 12825 13092 13092 13092 13092 13092 13092 13370 13370 13370 13370 13661 13661 13661 13661 13661 13661 13965 14614 15327 15710 15710 15710 15710 15710 16113 16113 16113 16113 16113 16537 16537 16537 16537 16537 16537 16537 16537 16537 16537 16537 16537 16113 16113 16113 16113 16113 16113 16113 16113 16113 16113 16113 16113 15710 15710 15710 15327 15327 15327 15327 14962 14962 15327 15327 15327 15710 15710 15710 15710 15710 15710 15327 15327 14962 14614 14614 14282 13965 13965 13965 13965 13965 13965 14282 14282 14282 14282 14282 14282 14282 13965 13965 13661 13661 13370 13370 13370 13370 13370 13370 13370 13370 13661 13661 13965 13965 14282 14614 14614 14962 14962 14962 14962 14962 14962 14962 14614 14614 14614 14614 14614 14614 14614
    0 0 0 0 0 0 0 0 0 0 0 0 0 0 0 0 0 0 0 0 0 0 0 0 0 0 0 0 0 0 0 0 0 0 0 0 0 0 0 0 0 0 0 0 0 0 0 0 0 0 0 0 0 0 0 0 0 0 0 0 0 0 0 0 0 0 0 0 0 0 0 0 0 0 0 0 0 0 0 0 0 0 0 0 0 0 0 0 0 0 0 0 0 0 0 0 0 0 0 0 0 0 0 0 0 0 0 0 0 0 0 0 0 0 0 0 0 0 0 0 0 0 0 0 0 0 0 0 0 0 0 0 0 0 0 0 0 0 0 0 0 0 0 0 0 0 0 0 0 0 0 0 0 0 0 0 0 0 11221 11221 11221 11426 11426 11426 11426 11426 11426 11637 11637 11637 11637 11637 11637 11637 11637 11637 11637 11857 11857 11857 11857 11857 11857 11857 11857 11857 12085 12085 12085 12085 12085 12085 12322 12322 12322 12322 12322 12322 12322 12322 12568 12568 12568 12568 12568 12568 12322 12568 12568 12568 12568 12825 12825 13092 13092 13092 13092 13092 13092 13092 13092 12825 13370 13661 13661 13661 13661 0 0 0 0 0 0 0 0 0 0 0 12825 12825 12825 12825 12825 12825 12825 12825 12825 12825 12825 12825 0 0 0 0 0 0 0 0 0 0 0 0 0 0 0 0 0 0 0 0 0 0 0 0 0 0 0 0 0 0 0 0 0 0 0 0 0 0 13092 13092 13092 13092 13092 13092 13092 13092 12825 12825 12825 12825 12568 12568 12568 12568 12568 12568 12085 11857 11637 11426 11426 11221 11221 11221 11426 11426 11637 11637 11637 11637 11637 11637 11637 11637 11637 11637 11426 11426 11426 11426 11426 11637 11637 11637 11637 11637 11637 11637 11857 13092 13092 13092 13092 13092 13092 13092 13092 13092 13092 13092 13092 13092 13092 13370 13370 13370 13370 13370 13092 13092 13092 13092 13092 13092 13092 12825 12825 12825 12825 12825 13092 13092 13092 13092 13092 13092 13092 13092 13092 13092 13092 13092 13092 13092 13092 13092 13092 12825 13092 13092 13092 13092 13092 13092 13370 13370 13370 13370 13661 13661 13661 13661 13661 13661 13965 14282 14614 15327 15710 15710 15710 15710 15710 15710 16113 16113 16113 16113 16113 16537 16537 16537 16537 16537 16537 16537 16537 16537 16113 16113 16113 16113 16113 16113 16113 16113 16113 16113 16113 16113 16113 15710 15710 15710 15710 15327 15327 15327 15327 15327 15327 15327 15327 15710 15710 15710 15710 15710 15710 15327 15327 15327 14962 14614 14282 13965 13965 13965 13965 13965 13965 13965 14282 14282 14282 14282 14282 14282 14282 13965 13965 13661 13661 13370 13370 13370 13370 13370 13370 13370 13661 13661 13965 13965 14282 14282 14614 14614 14962 14962 14962 14962 14962 14962 14962 14614 14614 14614 14614 14614 14614 14614
    0 0 0 0 0 0 0 0 0 0 0 0 0 0 0 0 0 0 0 0 0 0 0 0 0 0 0 0 0 0 0 0 0 0 0 0 0 0 0 0 0 0 0 0 0 0 0 0 0 0 0 0 0 0 0 0 0 0 0 0 0 0 0 0 0 0 0 0 0 0 0 0 0 0 0 0 0 0 0 0 0 0 0 0 0 0 0 0 0 0 0 0 0 0 0 0 0 0 0 0 0 0 0 0 0 0 0 0 0 0 0 0 0 0 0 0 0 0 0 0 0 0 0 0 0 0 0 0 0 0 0 0 0 0 0 0 0 0 0 0 0 0 0 0 0 0 0 0 0 0 0 0 0 0 0 0 0 11221 11221 11221 11221 11426 11426 11426 11426 11426 11426 11426 11637 11637 11637 11637 11637 11637 11637 11637 11637 11637 11637 11857 11857 11857 11857 11857 11857 11857 12085 12085 12085 12085 12085 12085 12085 12322 12322 12322 12322 12322 12322 12322 12568 12568 12568 12568 12322 12322 12322 12322 12568 12568 12825 12825 12825 13092 13092 13092 13092 13092 13092 13092 12825 12825 12825 0 0 0 0 0 0 0 0 0 0 0 0 0 0 12825 12825 12825 12825 12825 12825 12825 12825 12825 12825 12825 12825 12568 12322 0 0 0 0 0 0 0 0 0 0 0 0 0 0 0 0 0 0 0 0 0 0 0 0 0 0 0 0 0 0 0 0 0 0 0 0 0 13092 13092 13092 13092 13092 13092 13092 13092 12825 12825 12568 12568 12322 12322 12322 12322 12322 12085 11857 11637 11637 11426 11221 11221 11221 11221 11426 11426 11637 11637 11637 11637 11637 11637 11637 11637 11637 11637 11637 11426 11426 11426 11426 11426 11637 11637 11637 11637 11637 11857 12085 13092 13092 13092 13092 13092 13092 13092 13092 13092 13092 13092 13092 13092 13370 13370 13370 13370 13370 13370 13092 13092 13092 13092 13092 13092 13092 12825 12825 12825 12825 13092 13092 13092 13092 13092 13092 13092 13092 13092 13092 13092 13092 13092 13092 13092 13092 13092 13092 13092 13092 13092 13092 13092 13092 13092 13370 13370 13370 13661 13661 13661 13661 13661 13661 13965 13965 14282 14614 15327 15710 15710 15710 15710 15710 15710 15710 16113 16113 16113 16113 16113 16113 16537 16537 16537 16537 16537 16537 16113 16113 16113 16113 16113 15710 15710 16113 16113 16113 16113 16113 16113 15710 15710 15710 15710 15710 15710 15710 15710 15327 15327 15327 15710 15710 15710 15710 15710 15710 15710 15327 15327 15327 14962 14614 14282 14282 13965 13965 13965 13661 13965 13965 13965 14282 14282 14282 14282 14282 14282 13965 13965 13661 13661 13661 13370 13370 13370 13370 13370 13370 13661 13661 13965 13965 13965 14282 14282 14614 14614 14962 14962 14962 14962 14962 14962 14962 14962 14962 14962 14614 14614 14614 14614
    0 0 0 0 0 0 0 0 0 0 0 0 0 0 0 0 0 0 0 0 0 0 0 0 0 0 0 0 0 0 0 0 0 0 0 0 0 0 0 0 0 0 0 0 0 0 0 0 0 0 0 0 0 0 0 0 0 0 0 0 0 0 0 0 0 0 0 0 0 0 0 0 0 0 0 0 0 0 0 0 0 0 0 0 0 0 0 0 0 0 0 0 0 0 0 0 0 0 0 0 0 0 0 0 0 0 0 0 0 0 0 0 0 0 0 0 0 0 0 0 0 0 0 0 0 0 0 0 0 0 0 0 0 0 0 0 0 0 0 0 0 0 0 0 0 0 0 0 0 0 0 0 0 0 0 0 0 11221 11221 11221 11221 11221 11221 11221 11426 11426 11426 11426 11426 11637 11637 11637 11637 11637 11637 11637 11637 11637 11637 11637 11857 11857 11857 11857 11857 11857 11857 11857 12085 12085 12085 12085 12085 12322 12322 12322 12322 12322 12322 12322 12568 12568 12568 12322 12322 12322 12322 12322 12322 12568 12825 12825 12825 12825 13092 13092 13092 13092 12825 12825 12825 12825 12825 12568 0 0 0 0 0 0 0 0 0 0 0 0 0 12825 12825 12825 12825 12825 12825 12825 12825 12825 12825 12568 12568 12568 12568 12568 12568 12568 12568 12568 0 0 0 0 0 0 0 0 0 0 0 0 0 0 0 0 0 0 0 0 0 0 0 0 0 0 0 0 0 0 0 0 13092 13092 13092 13092 13092 13092 13092 13092 12825 12568 12568 12322 12085 12085 12085 11857 11857 11857 11857 11637 11637 11426 11221 11221 11221 11221 11221 11426 11637 11637 11637 11637 11637 11637 11637 11637 11637 11637 11637 11426 11426 11426 11426 11426 11637 11637 11637 11637 11637 11857 12322 13092 13092 13092 13092 13092 13092 13092 13092 13092 13092 13092 13092 13092 13370 13370 13370 13370 13370 13092 13092 13092 13092 13092 13092 13092 12825 12825 12825 12825 13092 13092 13092 13092 13092 13092 13092 13092 13092 13092 13092 13092 13092 13092 13092 13092 13092 13092 13092 13092 13092 13092 13092 13092 13092 13370 13370 13370 13661 13661 13661 13661 13661 13965 13965 13965 14282 14614 14962 15327 15327 15710 15710 15710 15710 15710 15710 16113 16113 16113 16113 16113 16113 16113 16113 16113 16113 16113 16113 16113 16113 16113 15710 15710 15710 15710 15710 15710 15710 15710 15710 15710 15710 15710 15710 15710 15710 15710 15710 15710 15710 15710 15710 15710 15710 15710 15710 15710 15710 15710 15327 15327 14962 14962 14614 14282 13965 13965 13965 13661 13661 13965 13965 13965 14282 14282 14282 14282 14282 13965 13965 13965 13661 13661 13370 13370 13370 13370 13370 13370 13661 13661 13965 13965 13965 13965 14282 14282 14614 14614 14614 14962 14962 14962 14614 14962 14962 14962 14962 14962 14962 14962 14962 14614
    0 0 0 0 0 0 0 0 0 0 0 0 0 0 0 0 0 0 0 0 0 0 0 0 0 0 0 0 0 0 0 0 0 0 0 0 0 0 0 0 0 0 0 0 0 0 0 0 0 0 0 0 0 0 0 0 0 0 0 0 0 0 0 0 0 0 0 0 0 0 0 0 0 0 0 0 0 0 0 0 0 0 0 0 0 0 0 0 0 0 0 0 0 0 0 0 0 0 0 0 0 0 0 0 0 0 0 0 0 0 0 0 0 0 0 0 0 0 0 0 0 0 0 0 0 0 0 0 0 0 0 0 0 0 0 0 0 0 0 0 0 0 0 0 0 0 0 0 0 0 0 0 0 0 0 0 0 11221 11221 11221 11221 11221 11221 11221 11221 11426 11426 11426 11426 11426 11637 11637 11637 11637 11637 11637 11637 11637 11637 11637 11637 11857 11857 11857 11857 11857 11857 11857 11857 12085 12085 12085 12085 12085 12322 12322 12322 12322 12322 12322 12568 12568 12322 12322 12322 12322 12322 12322 12322 12568 12825 12825 12825 12825 13092 12825 12825 12825 12825 12825 12825 12825 12825 12568 12568 12568 12568 12568 12568 12568 12322 12322 12322 12322 0 0 13092 13092 13092 13092 13092 12825 12825 12825 12825 12825 12568 12568 12568 12568 12568 12568 12568 12568 12568 12568 0 0 0 0 0 0 0 0 0 0 0 0 0 0 0 0 0 0 0 0 0 0 0 0 0 0 0 0 0 0 0 0 0 0 0 0 13092 13092 13092 13092 12825 12568 12322 12085 12085 11857 11857 11637 11637 11637 11637 11637 11426 11426 11221 11221 11221 11221 11221 11426 11426 11637 11637 11637 11637 11637 11637 11637 11637 11637 11637 11426 11426 11426 11426 11426 11426 11637 11637 11857 11857 12085 12568 13092 13092 13092 13092 13092 13092 13092 13092 12825 13092 13092 13092 13092 13370 13370 13370 13370 13370 13092 13092 13092 13092 13092 13092 13092 12825 12825 12825 12825 13092 13092 13092 13092 13092 13092 13092 13092 13092 13092 13092 13092 13092 13092 13092 13092 13092 13092 13092 13092 13092 13092 13092 13092 13092 13370 13370 13370 13661 13661 13661 13965 13965 13965 14282 14282 14614 14962 14962 15327 15327 15327 15327 15710 15710 15710 15710 16113 16113 16113 16113 16113 16113 16113 16113 16113 16113 16113 16113 16113 15710 15710 15710 15710 15710 15710 15710 15710 15710 15710 15710 15710 15710 15710 15710 15710 15710 15710 15710 15710 15710 15710 15710 15710 15710 15710 15710 15710 15710 15327 15327 15327 14962 14614 14282 13965 13965 13965 13661 13661 13661 13965 13965 13965 14282 14282 14282 14282 14282 13965 13965 13661 13661 13661 13370 13370 13370 13370 13370 13370 13661 13661 13965 13965 13965 13965 14282 14282 14614 14614 14614 14614 14614 14614 14614 14962 14962 14962 14962 14962 14962 14962 14962 14962
    0 0 0 0 0 0 0 0 0 0 0 0 0 0 0 0 0 0 0 0 0 0 0 0 0 0 0 0 0 0 0 0 0 0 0 0 0 0 0 0 0 0 0 0 0 0 0 0 0 0 0 0 0 0 0 0 0 0 0 0 0 0 0 0 0 0 0 0 0 0 0 0 0 0 0 0 0 0 0 0 0 0 0 0 0 0 0 0 0 0 0 0 0 0 0 0 0 0 0 0 0 0 0 0 0 0 0 0 0 0 0 0 0 0 0 0 0 0 0 0 0 0 0 0 0 0 0 0 0 0 0 0 0 0 0 0 0 0 0 0 0 0 0 0 0 0 0 0 0 0 0 0 0 0 0 0 0 11221 11221 11221 11221 11221 11221 11221 11221 11426 11426 11426 11426 11426 11426 11637 11637 11637 11637 11637 11426 11637 11637 11637 11637 11637 11637 11857 11857 11857 11857 11857 11857 11857 12085 12085 12085 12085 12322 12322 12322 12322 12322 12322 12322 12568 12322 12322 12322 12322 12322 12322 12322 12568 13092 12825 12825 12825 12825 12825 12825 12825 12825 12825 12825 12825 12825 12568 12825 12568 12568 12568 12568 12568 12568 12568 12568 12568 12568 13092 13092 13092 13092 13092 13092 12825 12825 12825 12825 12568 12568 12568 12568 12568 12568 12568 12568 12568 12568 12568 0 0 0 0 0 0 0 0 0 0 0 0 0 0 0 0 0 0 0 0 0 0 0 0 0 0 0 0 0 0 0 0 0 0 0 0 0 0 0 0 12322 12085 11857 11857 11857 11637 11637 11637 11637 11637 11637 11426 11426 11426 11221 11221 11221 11221 11221 11426 11426 11637 11637 11637 11637 11637 11637 11637 11637 11637 11426 11426 11426 11426 11426 11426 11426 11637 11637 11857 12085 12322 12825 13092 13092 13092 13092 13092 13092 13092 12825 13092 13092 13092 13092 13092 13370 13370 13370 13370 13370 13092 13092 13092 13092 13092 13092 12825 12825 12825 12825 13092 13092 13092 13092 13092 13092 13092 13092 13092 13092 13092 13092 13092 13092 13092 13092 13092 13092 13092 13092 13092 13092 13092 13092 13092 13370 13370 13370 13370 13661 13661 13965 13965 13965 14282 14614 14614 14962 14962 15327 15327 15327 15327 15327 15710 15710 15710 15710 15710 16113 16113 16113 16113 16113 16113 16113 16113 16113 16113 16113 15710 15710 15710 15710 15327 15327 15327 15710 15710 15710 15710 15327 15327 15327 15710 15710 15710 15710 15710 16113 15710 15710 15710 15710 15710 15710 15710 15710 15710 15710 15327 15327 14962 14614 14282 13965 13965 13965 13661 13661 13661 13661 13965 13965 13965 14282 14282 14282 14282 14282 13965 13965 13661 13661 13370 13370 13370 13370 13370 13370 13370 13661 13661 13965 13965 13965 13965 14282 14282 14282 14614 14614 14614 14614 14614 14614 14962 14962 14962 14962 14962 14962 14962 14962 14962
    0 0 0 0 0 0 0 0 0 0 0 0 0 0 0 0 0 0 0 0 0 0 0 0 0 0 0 0 0 0 0 0 0 0 0 0 0 0 0 0 0 0 0 0 0 0 0 0 0 0 0 0 0 0 0 0 0 0 0 0 0 0 0 0 0 0 0 0 0 0 0 0 0 0 0 0 0 0 0 0 0 0 0 0 0 0 0 0 0 0 0 0 0 0 0 0 0 0 0 0 0 0 0 0 0 0 0 0 0 0 0 0 0 0 0 0 0 0 0 0 0 0 0 0 0 0 0 0 0 0 0 0 0 0 0 0 0 0 0 0 0 0 0 0 0 0 0 0 0 0 0 0 0 0 0 0 0 11221 11221 11221 11221 11221 11221 11221 11221 11426 11426 11426 11426 11426 11426 11637 11637 11637 11637 11426 11426 11426 11426 11637 11637 11637 11637 11637 11637 11857 11857 11857 11857 11857 11857 12085 12085 12085 12322 12322 12322 12322 12322 12322 12322 12322 12322 12322 12322 12322 12322 12085 12085 12322 12825 12825 12825 12825 12825 12825 12825 12825 12825 12825 12825 12568 12568 12568 12825 12568 12568 12568 12568 12568 12568 12568 12568 12568 12568 13092 13092 13092 13092 13092 13092 12825 12825 12825 12825 12825 12568 12568 12568 12568 12568 12568 12825 12825 12825 12825 0 0 0 0 0 0 0 0 0 0 0 0 0 0 0 0 0 0 0 0 0 0 0 0 0 0 0 0 0 0 0 0 0 0 0 0 0 0 0 0 12085 11857 11637 11637 11637 11637 11637 11637 11426 11426 11426 11426 11426 11221 11221 11221 11025 11025 11221 11221 11426 11426 11637 11637 11637 11637 11637 11637 11637 11426 11426 11426 11426 11426 11426 11426 11426 11637 11637 11857 12085 12568 12825 13092 13092 13092 13092 13092 13092 12825 13092 13092 13092 13092 13092 13092 13092 13092 13092 13092 13092 13092 13092 13092 13092 13092 13092 12825 12825 12825 12825 13092 13092 13092 13092 13092 13092 13092 13092 12825 12825 12825 13092 13092 13092 13092 13092 13092 13092 13092 13092 13092 13092 13092 13092 13092 13370 13370 13370 13370 13661 13661 13965 13965 14282 14614 14614 14962 14962 15327 15327 15327 15327 15327 15327 15710 15710 15710 15710 15710 15710 16113 16113 16113 16113 16113 16113 16113 16113 15710 15710 15710 15710 15327 15327 15327 15327 15327 15327 15327 15327 15327 15327 15327 15327 15710 15710 15710 16113 16113 16113 16113 15710 15710 15710 15710 15710 15710 15710 15710 15710 15327 15327 14962 14614 14282 13965 13965 13965 13661 13661 13661 13661 13965 13965 13965 14282 14282 14282 14282 14282 13965 13965 13661 13661 13370 13370 13370 13092 13370 13370 13370 13661 13661 13661 13661 13661 13965 13965 14282 14282 14282 14614 14614 14614 14614 14614 14962 14962 14962 14962 14962 14962 14962 14962 14962
    0 0 0 0 0 0 0 0 0 0 0 0 0 0 0 0 0 0 0 0 0 0 0 0 0 0 0 0 0 0 0 0 0 0 0 0 0 0 0 0 0 0 0 0 0 0 8379 8268 8268 8268 8268 8161 0 0 0 0 0 0 0 0 0 0 0 0 0 0 0 0 0 0 0 0 0 0 0 0 0 0 0 0 0 0 0 0 0 0 0 0 0 0 0 0 0 0 0 0 0 0 0 0 0 0 0 0 0 0 0 0 0 0 0 0 0 0 0 0 0 0 0 0 0 0 0 0 0 0 0 0 0 0 0 0 0 0 0 0 0 0 0 0 0 0 0 0 0 0 0 0 0 0 0 0 0 0 0 0 0 11221 11221 11221 11221 11221 11221 11221 11221 11426 11426 11426 11426 11426 11426 11426 11426 11426 11426 11426 11426 11426 11426 11426 11637 11637 11637 11637 11637 11637 11857 11857 11857 11857 11857 12085 12085 12085 12322 12322 12322 12322 12322 12322 12322 12322 12322 12322 12322 12322 12322 12085 12085 12085 12825 12825 12825 12825 12825 12825 12825 12825 12825 12825 12825 12825 12825 12825 12825 12568 12568 12568 12568 12568 12568 12568 12568 12568 12825 13092 13092 13092 13092 13092 13092 12825 12825 12825 12825 12825 12825 12825 12825 12568 12568 12825 12825 12825 12825 12825 0 0 0 0 0 0 0 0 0 0 0 0 0 0 0 0 0 0 0 0 0 0 0 0 0 0 0 0 0 0 0 0 0 0 0 0 0 0 0 0 11426 11637 11637 11637 11637 11637 11637 11637 11426 11426 11426 11426 11426 11221 11221 11025 11025 11025 11221 11221 11426 11426 11426 11426 11426 11426 11426 11426 11426 11426 11426 11426 11426 11426 11426 11426 11426 11637 11637 12085 12322 12568 13092 13092 13092 13092 13092 12825 12825 12825 13092 13092 13092 13092 13092 13092 13092 13092 13092 13092 13092 13092 13092 13092 13092 13092 12825 12825 12825 12825 13092 13092 13092 13092 13092 13092 13092 13092 13092 13092 13092 13092 13092 12825 13092 13092 13092 13092 13092 13092 13092 13092 13092 13092 13092 13092 13370 13370 13370 13370 13661 13661 13965 14282 14614 14962 14962 15327 15327 15327 15327 15327 15327 15327 15327 15710 15710 15710 15710 15710 15710 15710 16113 16113 16113 16113 16113 15710 15710 15710 15710 15710 15327 15327 15327 15327 15327 15327 15327 15327 15327 15327 15327 15327 15327 15710 15710 16113 16113 16113 16113 16113 15710 15710 15710 15710 15710 15710 15710 15710 15710 15710 15327 14614 14282 13965 13965 13661 13661 13661 13661 13661 13661 13965 13965 13965 14282 14282 14282 14282 14282 13965 13965 13661 13661 13370 13370 13092 13092 13092 13370 13370 13370 13370 13661 13661 13661 13661 13661 13965 13965 14282 14282 14614 14614 14614 14614 14962 14962 14962 14962 14962 14962 14962 14962 14962
    0 0 0 0 0 0 0 0 0 0 0 0 0 0 0 0 0 0 0 0 0 0 0 0 0 0 0 0 0 0 0 0 0 0 0 0 0 0 0 0 0 0 0 0 0 0 8268 8268 8268 8268 8268 8161 8161 0 0 0 0 0 0 0 0 0 0 0 0 0 0 0 0 0 0 0 0 0 0 0 0 0 0 0 0 0 0 0 0 0 0 0 0 0 0 0 0 0 0 0 0 0 0 0 0 0 0 0 0 0 0 0 0 0 0 0 0 0 0 0 0 0 0 0 0 0 0 0 0 0 0 0 0 0 0 0 0 0 0 0 0 0 0 0 0 0 0 0 0 0 0 0 0 0 0 0 0 0 0 0 0 11221 11221 11221 11221 11221 11221 11221 11221 11221 11426 11426 11426 11426 11426 11426 11426 11426 11426 11426 11426 11426 11426 11426 11426 11637 11637 11637 11637 11637 11637 11857 11857 11857 11857 12085 12085 12085 12322 12322 12322 12322 12322 12322 12322 12322 12322 12322 12322 12322 12322 12085 12085 12085 0 12568 12568 12568 12825 12825 12825 12825 12825 12825 12825 12825 12825 12825 12825 12568 12568 12568 12568 12568 12568 12568 12825 12825 12825 13092 13092 13092 13092 13092 13092 13092 13092 13092 12825 12825 12825 12825 12825 12825 12825 12825 12825 12825 12825 12825 0 0 0 0 0 0 0 0 0 0 0 0 0 0 0 0 0 0 0 0 0 0 0 0 0 0 0 0 0 0 0 0 0 0 0 0 0 0 0 0 11426 11426 11426 11426 11426 11426 11637 11637 11637 11426 11426 11426 11221 11221 11221 11025 11025 11025 11025 11221 11221 11426 11426 11426 11426 11426 11426 11426 11426 11426 11426 11426 11426 11426 11426 11426 11426 11637 11857 12085 12322 12825 13092 13092 13092 12825 12825 12825 12825 12825 13092 13092 13092 13092 13092 13092 13092 13092 13092 13092 13092 13092 13092 13092 13092 13092 12825 12825 12825 13092 13092 13092 13092 13092 13092 13092 13092 13092 13092 13092 13092 13092 13092 13092 12825 13092 13092 13092 13092 13092 13092 13092 13092 13092 13092 13370 13370 13370 13370 13370 13661 13965 14282 14614 14614 14962 15327 15327 15327 15327 15327 15327 15327 15327 15327 15710 15710 15710 15710 15710 15710 15710 15710 15710 16113 16113 16113 15710 15710 15710 15327 15327 15327 15327 15327 15327 15327 15327 15327 15327 15327 15327 15327 15327 15327 15710 15710 16113 16113 16113 16113 16113 15710 15710 15710 15710 15710 15710 15710 15710 15710 15327 14962 14614 13965 13965 13661 13661 13661 13661 13661 13661 13661 13965 13965 13965 14282 14282 14282 14282 14282 13965 13965 13661 13661 13370 13370 13092 13092 13092 13092 13092 13370 13370 13370 13370 13370 13661 13661 13661 13965 13965 14282 14282 14614 14614 14614 14962 14962 14962 14962 14962 14962 14962 14962 14962
    0 0 0 0 0 0 0 0 0 0 0 0 0 0 0 0 0 0 0 0 0 0 0 0 0 0 0 0 0 0 0 0 0 0 0 0 0 0 0 0 0 0 0 0 0 0 8268 8268 8268 8268 8268 8161 8161 0 0 0 0 0 0 0 0 0 0 0 0 0 0 0 0 0 0 0 0 0 0 0 0 0 0 0 0 0 0 0 0 0 0 0 0 0 0 0 0 0 0 0 0 0 0 0 0 0 0 0 0 0 0 0 0 0 0 0 0 0 0 0 0 0 0 0 0 0 0 0 0 0 0 0 0 0 0 0 0 0 0 0 0 0 0 0 0 0 0 0 0 0 0 0 0 0 0 0 0 0 0 0 11025 11221 11221 11221 11221 11221 11221 11221 11221 11221 11221 11426 11426 11426 11426 11426 11426 11426 11426 11426 11426 11426 11426 11426 11426 11426 11637 11637 11637 11637 11637 11637 11857 11857 11857 12085 12085 12085 12322 12322 12322 12322 12322 12322 12322 12322 12322 12322 12322 12322 12322 12085 12085 0 0 0 12568 12568 12825 12825 12825 12825 12825 12825 12825 12825 12825 12825 12825 12568 12568 12568 12568 12568 12825 12825 12825 12825 12825 13092 13092 13092 13092 13092 13092 13092 13092 13092 13092 13092 13092 13092 13092 12825 12825 12825 12825 12825 12825 12825 0 0 0 0 0 0 0 0 0 0 0 0 0 0 0 0 0 0 0 0 0 0 0 0 0 0 0 0 0 0 0 0 0 0 0 0 0 0 0 0 11426 11426 11426 11426 11426 11426 11637 11637 11637 11637 11426 11426 11221 11221 11025 11025 10835 10835 11025 11025 11221 11221 11426 11426 11426 11426 11426 11426 11426 11426 11426 11426 11426 11426 11426 11426 11637 11637 11857 12085 12568 12825 13092 13092 13092 12825 12825 12825 12825 13092 13092 13092 13092 13092 13092 13092 13092 13092 13092 13092 13092 13092 13092 13092 13092 12825 12825 12825 12825 13092 13092 13092 13092 13092 13092 13092 13092 13092 13092 13092 13092 13092 13092 13092 12825 13092 13092 13092 13092 13092 13092 13092 13092 13092 13370 13370 13370 13370 13370 13370 13661 13965 14282 14614 14962 14962 15327 15327 15327 15327 15327 15327 15327 15327 15327 15327 15327 15327 15327 15327 15327 15710 15710 15710 15710 15710 15710 15710 15327 15327 15327 15327 15327 14962 14962 14962 14962 14962 15327 15327 15327 15327 15327 15327 15327 15710 15710 16113 16113 16113 16113 15710 15710 15710 15710 15710 15710 15710 15710 15710 15710 15327 14614 14282 13661 13661 13661 13661 13661 13661 13661 13661 13661 13965 13965 13965 14282 14282 14282 14282 14282 13965 13965 13661 13661 13370 13092 13092 13092 13092 13092 13092 13092 13370 13370 13370 13370 13370 13370 13661 13661 13661 13965 14282 14282 14614 14614 14962 14962 14962 14962 14962 14614 14614 14614 14614
    0 0 0 0 0 0 0 0 0 0 0 0 0 0 0 0 0 0 0 0 0 0 0 0 0 0 0 0 0 0 0 0 0 0 0 0 0 0 0 0 0 0 0 0 0 0 8268 8268 8268 8268 8268 8161 8161 0 0 0 0 0 0 0 0 0 0 0 0 0 0 0 0 0 0 0 0 0 0 0 0 0 0 0 0 0 0 0 0 0 0 0 0 0 0 0 0 0 0 0 0 0 0 0 0 0 0 0 0 0 0 0 0 0 0 0 0 0 0 0 0 0 0 0 0 0 0 0 0 0 0 0 0 0 0 0 0 0 0 0 0 0 0 0 0 0 0 0 0 0 0 0 0 0 0 0 0 0 0 11025 11025 11221 11221 11221 11221 11221 11221 11221 11221 11221 11221 11221 11426 11426 11426 11426 11426 11426 11426 11426 11426 11426 11426 11426 11426 11426 11637 11637 11637 11637 11637 11857 11857 11857 11857 12085 12085 12322 12322 12322 12322 12322 12322 12322 12322 12322 12322 12322 12322 12322 12322 0 0 0 0 0 12568 12568 12825 12825 12825 12825 12825 12825 12825 12825 13092 13370 13370 13370 13092 12825 12825 12825 12825 12825 12825 12825 12825 13092 13092 13092 13092 13370 13370 13092 13092 13370 13370 13370 13092 13092 13092 13092 12825 12825 12825 12825 12825 12825 0 0 0 0 0 0 0 0 0 0 0 0 0 0 0 0 0 12568 12568 12568 12568 12568 0 0 0 0 0 0 0 0 0 0 0 0 0 0 0 0 0 0 0 11221 11221 11426 11426 11426 11637 11637 11637 11637 11426 11426 11426 11221 11025 11025 10835 10835 10835 11025 11221 11221 11426 11426 11426 11426 11426 11426 11426 11426 11426 11426 11426 11426 11426 11637 11637 11637 11857 12322 12568 13092 13092 13092 12825 12825 12825 12825 13092 13092 13092 13092 13092 13092 13092 13092 13092 13092 13092 13092 13092 13092 13092 13092 12825 12825 12825 12825 12825 13092 13092 13092 13092 13092 13092 13092 13092 13092 13092 13092 13092 13092 13092 13092 12825 12825 13092 13092 13092 13092 13092 13092 13092 13092 13370 13370 13370 13370 13370 13661 13965 14282 14614 14614 14962 14962 14962 14962 15327 15327 15327 15327 15327 15327 15327 15327 15327 15327 15327 15327 15327 15327 15327 15327 15327 15327 15327 15327 15327 15327 15327 14962 14962 14962 14962 14962 14962 14962 14962 14962 14962 14962 15327 15327 15327 15710 15710 15710 15710 15710 15710 15710 15710 15327 15327 15327 15327 15710 15710 15710 15710 14962 14282 13661 13370 13370 13370 13370 13370 13370 13661 13661 13661 13965 13965 13965 14282 14282 14282 14282 14282 13965 13965 13661 13661 13370 13092 13092 13092 13092 13092 13092 13092 13092 13370 13370 13370 13370 13370 13370 13370 13661 13661 13965 14282 14282 14614 14614 14614 14614 14614 14614 14614 14614 14282 14282
    0 0 0 0 0 0 0 0 0 0 0 0 0 0 0 0 0 0 0 0 0 0 0 0 0 0 0 0 0 0 0 0 0 0 0 0 0 0 0 0 0 8728 8728 8728 8728 8728 8492 8379 8268 8268 8268 8161 8161 0 0 0 0 0 0 0 0 0 0 0 0 0 0 0 0 0 0 0 0 0 0 0 0 0 0 0 0 0 0 0 0 0 0 0 0 0 8379 8379 8379 8379 8379 8379 8379 8379 8268 0 0 0 0 0 0 0 0 0 0 0 0 0 0 0 0 0 0 0 0 0 0 0 0 0 0 0 0 0 0 0 0 0 0 0 0 0 0 0 0 0 0 0 0 0 0 0 0 0 0 0 0 0 0 0 11221 11221 11221 11221 11221 11221 11221 11221 11221 11221 11221 11221 11221 11221 11221 11426 11426 11426 11426 11426 11426 11221 11221 11426 11426 11426 11426 11426 11637 11637 11637 11637 11637 11857 11857 11857 11857 12085 12085 12085 12322 12322 12322 12322 12322 12322 12322 12322 12322 12322 12322 0 0 0 0 0 0 0 0 12568 12825 12825 12825 12825 12825 12825 12825 13370 13661 13661 13661 13661 13370 13092 13092 12825 12825 12825 13092 12825 13092 13092 0 13092 13370 13370 13370 13370 13370 13370 13370 13370 13370 13370 13092 13092 13092 13092 12825 12825 12825 12825 0 0 0 0 0 0 0 0 0 0 0 0 0 0 0 15710 13965 13370 13092 13092 12568 12568 12322 0 0 0 0 0 0 0 0 0 0 0 0 0 0 0 0 0 0 0 11637 11637 11637 11637 11637 11637 11637 11637 11426 11426 11221 11221 11025 10835 10835 10835 10835 11025 11025 11221 11426 11426 11426 11221 11426 11426 11426 11426 11426 11426 11426 11426 11426 11637 11637 11637 11857 12085 12568 13092 13092 12825 12825 12825 12825 12825 13092 13370 13370 13092 13092 12825 12825 12825 12825 12825 12825 12825 12825 12825 12825 12825 12825 12825 12825 12825 12825 13092 13092 13092 13092 13092 13092 13092 13092 13092 13092 13092 13092 13092 13092 13092 12825 12825 12825 12825 12825 13092 13092 13092 13092 13092 13370 13370 13370 13370 13661 13661 13965 14282 14614 14962 14962 14962 14962 14962 15327 15327 15327 15327 15327 15327 15327 15327 15327 15327 15327 15327 15327 15327 15327 15327 15327 15327 14962 15327 15327 14962 14962 14962 14962 14962 14962 14962 14962 14962 14962 14962 14962 14962 15327 15327 15327 15327 15710 15710 15710 15710 15710 15710 15327 15327 15327 15327 15327 15327 15710 15710 15327 14282 13661 13661 13370 13370 13370 13370 13370 13370 13661 13661 13661 13965 13965 13965 14282 14282 14282 14282 14282 13965 13965 13965 13661 13370 13092 13092 13092 13092 13092 13092 13092 13092 13092 13092 13370 13370 13370 13370 13370 13370 13661 13661 13965 14282 14614 14614 14614 14614 14614 14614 14282 14282 14282 14282
    0 0 0 0 0 0 0 0 0 0 0 0 0 0 0 0 0 0 0 0 0 0 0 0 0 0 0 0 0 0 0 0 0 0 0 0 0 0 0 0 0 8728 8728 8728 8728 8728 8492 8379 8268 8268 8268 8161 8161 0 0 0 0 0 0 0 0 0 0 0 0 0 0 0 0 0 0 0 0 0 0 0 0 0 0 0 0 0 0 0 0 0 0 0 0 8379 8379 8379 8379 8379 8379 8379 8379 8379 8268 8608 8851 8851 8851 8851 8728 0 0 0 0 0 0 0 0 0 0 0 0 0 0 0 0 0 0 0 0 0 0 0 0 0 0 0 0 0 0 0 0 0 0 0 0 0 0 0 0 0 0 0 0 0 0 0 0 0 11221 11221 11221 11221 11221 11221 11221 11221 11221 11221 11221 11221 11221 11221 11221 11221 11221 11426 11426 11426 11426 11426 11426 11426 11426 11426 11426 11426 11637 11637 11637 11637 11637 11857 11857 11857 12085 12085 12085 12085 12322 12322 12322 12322 12322 12085 12322 12322 12322 12322 12322 0 0 0 0 0 0 0 0 0 12825 12825 12825 12825 12825 12825 12825 13661 13965 13661 13661 13661 13370 13092 13092 13092 12825 13092 13092 13092 13092 13370 13370 13661 13370 13370 13370 13370 13370 13370 13370 13370 13370 13370 13370 13092 13092 13092 12825 12825 12825 12825 0 0 0 0 13661 13661 13661 13661 13661 0 0 0 0 0 0 15710 13965 13370 13370 13370 12568 12568 12322 0 0 0 0 0 0 0 0 0 0 0 0 0 0 0 0 0 11637 11637 11637 11637 11637 11637 11637 11637 11637 11426 11426 11426 11221 11025 11025 10835 10835 10835 10835 11025 11025 11221 11221 11221 11221 11221 11426 11426 11426 11426 11426 11426 11426 11426 11426 11637 11637 11637 11637 12085 12568 13092 13092 12825 12825 12825 12825 13092 13092 13370 13370 13092 12825 12825 12825 12825 12825 12825 12825 12825 12825 12825 12825 12825 12825 12825 12825 12825 12825 13092 13092 13092 13092 13092 13092 13092 13092 13092 13092 13092 13092 13092 13092 13092 12825 12825 12825 12825 12825 12825 12825 13092 13092 13092 13370 13370 13370 13661 13661 13965 14282 14282 14614 14962 14962 14962 14962 14962 15327 15327 15327 15327 15327 15327 15327 15327 15327 15327 15327 15327 14962 14962 14962 14962 14962 14962 14962 14962 14962 14962 14962 14962 14962 14962 14962 14962 14962 14962 14962 14962 14962 14962 15327 15327 15327 15327 15710 15710 15710 15710 15710 15327 15327 14962 14962 14962 14962 15327 15710 15710 14282 13661 13370 13370 13370 13370 13370 13370 13370 13370 13661 13661 13965 13965 13965 13965 13965 13965 13965 13965 13965 13965 13965 13661 13661 13370 13092 13092 13092 13092 13092 13092 13092 13092 13092 13092 13092 13092 13092 13370 13370 13370 13370 13661 13661 13965 14282 14614 14614 14614 14614 14282 14282 14282 13965 13965
    0 0 0 0 0 0 0 0 0 0 0 0 0 0 0 0 0 0 0 0 0 0 0 0 0 0 0 0 0 0 0 0 0 0 0 0 0 0 0 0 0 8728 8728 8728 8728 8608 8492 8379 8379 8268 8268 8161 8161 0 0 0 0 0 0 0 0 0 0 0 0 0 0 0 0 0 0 0 0 0 0 0 0 0 0 0 0 0 0 8056 8056 8056 8056 8056 8056 8268 8379 8379 8379 8379 8379 8379 8379 8379 8492 8608 8728 8851 8851 8851 8728 0 0 0 0 0 0 0 0 0 0 0 0 0 0 0 0 0 0 0 0 0 0 0 0 0 0 0 0 0 0 0 0 0 0 0 0 0 0 0 0 0 0 0 0 0 0 0 0 0 11221 11221 11221 11221 11221 11221 11221 11221 11221 11221 11221 11221 11221 11221 11221 11221 11426 11426 11426 11426 11426 11426 11426 11426 11426 11426 11426 11426 11637 11637 11637 11637 11637 11857 11857 11857 12085 12085 12085 12085 12085 12085 12322 12322 12322 12085 12085 0 0 0 0 0 0 0 0 0 0 0 0 12825 12825 12825 12825 12825 12825 12825 12825 13965 13965 13661 13661 13370 13370 13092 13092 12825 12825 13092 13092 13092 13092 13092 13370 13370 0 13370 13370 13370 13370 13370 13370 13370 13370 13370 13370 13092 13092 13092 12825 12825 12825 12825 0 0 0 0 13370 13370 13370 13370 13370 0 0 0 0 0 0 15710 14282 13661 13370 13370 12568 12568 12322 0 0 0 0 0 0 0 0 0 0 0 0 0 0 0 12085 11857 11857 11857 11857 11637 11637 11637 11637 11637 11426 11426 11426 11221 11221 11025 11025 10835 10835 10651 10835 11025 11025 11221 11221 11221 11221 11221 11426 11426 11426 11426 11426 11426 11426 11426 11426 11426 11637 11637 11857 12085 12568 12825 12825 12825 12568 12568 12825 13092 13092 13370 13370 13092 12825 12825 12568 12568 12568 12825 12825 12825 12825 12825 12825 12825 12568 12568 12568 12825 12825 12825 13092 13092 13092 13092 13092 13092 13092 13092 13092 13092 13092 13092 13092 13092 13092 12825 12825 12825 12825 12825 12825 12825 13092 13092 13370 13370 13370 13661 13661 13965 14282 14282 14614 14962 14962 14962 14962 14962 14962 15327 15327 15327 15327 15327 15327 15327 15327 15327 15327 15327 14962 14962 14962 14962 14962 14962 14962 14962 14962 14962 14962 14962 14962 14962 14962 14962 14962 14962 14962 14962 14962 14962 15327 15327 15327 15327 15327 15710 15327 15327 15327 15327 14962 14962 14962 14962 14962 14962 14962 0 13370 13370 13370 13370 13370 13370 13370 13370 13370 13370 13661 13661 13965 13965 14282 14282 14282 13965 13965 13965 13965 13965 13965 13661 13661 13370 13092 13092 13092 13092 13092 13092 13092 13092 13092 13092 13092 13092 13092 13092 13370 13370 13370 13370 13661 13661 14282 14614 14614 14614 14282 14282 14282 14282 13965 13965
    0 0 0 0 0 0 0 0 0 0 0 0 0 0 0 0 0 0 0 0 0 0 0 0 0 0 0 0 0 0 0 0 0 0 0 0 0 0 0 0 0 8728 8728 8608 8608 8608 8492 8379 8379 8268 8268 8161 0 0 0 0 0 0 0 0 0 0 0 0 0 0 0 0 0 0 0 0 0 0 0 0 0 0 0 0 0 0 0 8056 8056 8056 8056 8056 8056 8268 8379 8379 8379 8379 8379 8379 8379 8379 8492 8608 8728 8728 8851 8851 8728 0 0 0 0 0 0 0 0 0 0 0 0 0 0 0 0 0 0 0 0 0 0 0 0 0 0 0 0 0 0 0 0 0 0 0 0 0 0 0 0 0 0 0 0 0 0 0 0 0 11221 11221 11221 11221 11221 11221 11221 11221 11221 11221 11221 11221 11221 11221 11221 11221 11426 11426 11426 11426 11426 11426 11426 11426 11426 11426 11426 11426 11637 11637 11637 11637 11637 11857 11857 12085 12085 12085 12085 12085 12085 12085 12085 12322 12322 12085 12085 0 0 0 0 0 0 0 0 0 0 0 0 12825 12825 12825 12825 12825 12825 12825 12825 13965 13661 13661 13661 13370 13370 13092 13092 12825 12825 12825 13092 13092 13092 13092 13092 13370 13092 13092 13092 13092 13370 13370 13370 13370 13370 13370 13370 13661 13661 13661 13965 13965 0 0 0 0 0 13092 13370 13370 13370 13370 13370 13092 13092 13092 13092 13092 13092 13965 13661 13370 13370 13370 12568 12568 12322 0 0 0 0 0 0 0 0 0 0 0 0 0 0 12322 12085 12085 11857 11857 11857 11637 11637 11637 11637 11637 11426 11426 11221 11221 11025 11025 10835 10835 10835 10651 10835 11025 11025 11221 11221 11221 11221 11221 11221 11426 11426 11426 11426 11426 11426 11426 11426 11426 11426 11637 11857 12085 12568 12825 12825 12568 12568 12568 12825 13092 13092 13370 13370 13092 12825 12568 12568 12568 12568 12825 12825 12825 12825 12825 12825 12568 12568 12568 12568 12825 12825 12825 13092 13092 13092 13092 13092 13092 13092 13092 13092 13092 13092 13092 13092 13092 13092 12825 12825 12825 12825 12825 12825 12825 13092 13092 13370 13370 13661 13661 13965 13965 14282 14282 14614 14614 14614 14962 14962 14962 14962 14962 15327 15327 15327 15327 15327 15327 15327 15327 15327 15327 14962 14962 14962 14962 14962 14962 14962 14962 14962 14962 14962 14962 14962 14962 14962 14962 14962 14962 14962 14962 14962 14962 15327 15327 15327 15327 15327 15327 15327 15327 15327 15327 14962 14962 14962 14962 14614 14614 14614 0 13370 13370 13370 13370 13370 13370 13370 13370 13370 13661 13661 13965 13965 14282 14282 14282 14282 13965 13965 13965 13965 13965 13965 13661 13661 13370 13092 13092 13092 13092 13092 13092 13092 13092 13092 13092 13092 13092 13092 13092 13092 13370 13370 13370 13370 13370 13965 14282 14282 14282 14282 14282 14282 13965 13965 13965
    0 0 0 0 0 0 0 0 0 0 0 0 0 0 0 0 0 0 0 0 0 0 0 0 0 0 0 0 0 0 0 0 0 0 0 0 0 8268 8268 8268 8268 8492 8492 8492 8492 8492 8379 8379 8379 8268 8268 8161 8161 0 0 0 0 0 0 0 0 0 0 0 0 0 0 0 0 0 0 0 0 0 0 0 0 0 0 0 0 0 8161 8161 8161 8161 8161 8056 8056 8268 8379 8379 8379 8379 8379 8379 8379 8379 8492 8608 8728 8728 8851 8851 8728 0 0 0 0 0 0 0 0 0 0 0 0 0 0 0 0 0 0 0 0 0 0 0 0 0 0 0 0 0 0 0 0 0 0 0 0 0 0 0 0 0 0 0 0 0 0 0 0 0 11221 11221 11221 11221 11221 11221 11221 11221 11221 11221 11221 11221 11221 11221 11221 11221 11426 11426 11426 11426 11426 11426 11426 11426 11426 11426 11426 11426 11426 11637 11637 11637 11637 11637 11857 12085 12085 11857 11857 11857 11857 11857 12085 12085 12085 12085 12085 0 0 0 0 0 0 0 0 0 0 0 0 12825 13092 13092 13092 13092 13092 13092 13370 13661 13661 13370 13370 13370 13092 13092 12825 12825 12825 12825 12825 13092 13092 13092 13092 13370 13092 13092 13092 13092 13092 13092 13092 13370 13370 13661 13661 13965 13965 13965 13965 13965 13965 13965 13965 0 13092 13092 13370 13370 13370 13370 13370 13092 13092 13092 13092 13092 13092 13370 13370 13370 13370 13370 12568 12322 12322 0 0 0 0 0 0 0 0 0 0 0 0 12322 12322 12322 12322 12085 12085 11857 11857 11637 11637 11637 11637 11637 11426 11426 11221 11025 11025 11025 10835 10835 10835 10651 10835 11025 11025 11221 11221 11221 11221 11221 11221 11221 11221 11221 11221 11221 11426 11426 11426 11426 11426 11637 11857 12085 12322 12568 12568 12568 12568 12568 12568 12825 13092 13370 13370 13092 12825 12568 12568 12568 12568 12568 12825 12825 12825 12825 12825 12568 12568 12568 12568 12825 12825 12825 13092 13092 13092 13092 13092 13092 13092 13092 13092 13092 13092 13092 13092 13092 13092 12825 12825 12825 12825 12825 12825 12825 13092 13092 13370 13370 13661 13661 13965 13965 14282 14282 14282 14614 14614 14614 14614 14962 14962 14962 14962 15327 15327 15327 15327 15327 15327 15327 15327 14962 14962 14962 14962 14962 14962 14962 14962 14962 14962 14962 14962 14962 14962 14962 14962 14962 15327 15327 15327 15327 14962 14962 15327 15327 15327 15327 15327 15327 15327 15327 15327 14962 14962 14962 14962 14614 14614 14614 0 13965 13370 13370 13370 13370 13370 13370 13370 13370 13370 13661 13965 14282 14282 14614 14614 14282 14282 14282 13965 13965 13965 13965 13661 13661 13370 13370 13092 13092 13092 13092 13092 13092 13092 13092 13092 13092 13092 13092 13092 13092 13092 13092 13370 13370 13370 13370 13370 13965 13965 13965 13965 13965 13965 13965 13965 13965
    0 0 0 0 0 0 0 0 0 0 0 0 0 0 0 0 0 0 0 0 0 0 0 0 0 0 0 0 0 0 0 0 0 0 0 0 8268 8268 8268 8268 8268 8379 8379 8379 8379 8379 8379 8268 8268 8268 8268 8268 8268 8268 0 0 0 0 0 0 0 0 0 0 0 0 0 0 0 0 0 0 0 0 0 0 0 0 0 8161 8161 8161 8161 8161 8161 8161 8161 8056 8056 8268 8379 8379 8379 8379 8379 8379 8379 8379 8379 8492 8608 8728 8851 8851 8728 0 0 0 0 0 0 0 0 0 0 0 0 0 0 0 0 0 0 0 0 0 0 0 0 0 0 0 0 0 0 0 0 0 0 0 0 0 0 0 0 0 0 0 0 0 0 0 0 0 11221 11221 11221 11221 11221 11221 11221 11221 11221 11221 11221 11221 11221 11221 11221 11221 11426 11426 11426 11426 11426 11426 11426 11426 11426 11426 11426 11426 11426 11637 11637 11637 11637 11637 11857 11857 11857 11857 11857 11857 11857 11857 11857 0 0 0 0 0 0 0 0 0 0 0 0 0 0 0 0 12825 13092 13092 13092 13092 13092 13092 13370 13370 13370 13370 13370 13092 13092 12825 12825 12825 12825 12825 12825 13092 13092 13092 13092 13370 13092 13092 13092 13092 13092 13092 13092 13092 13092 13661 13965 13965 13965 13965 13965 13965 13965 13965 13661 13661 13370 13370 13370 13370 13370 13092 13092 13092 13092 13092 13092 13092 12825 13092 13092 13092 13370 13370 12568 12322 0 0 0 0 0 0 0 0 0 0 0 0 12322 12322 12322 12322 12322 12085 12085 11857 11857 11857 11637 11637 11637 11637 11637 11426 11221 11025 11025 10835 10835 10835 10835 10651 10835 11025 11025 11221 11221 11221 11221 11221 11221 11221 11221 11221 11221 11221 11221 11221 11426 11426 11426 11637 11857 12085 12322 12568 12568 12568 12322 12322 12568 12825 12825 13092 13092 13092 12825 12825 12568 12568 12568 12568 12568 12825 12568 12568 12568 12568 12568 12568 12568 12825 12825 12825 12825 12825 12825 13092 13092 13092 13092 13092 13092 13092 13092 13092 13092 13092 13092 12825 12825 12825 12825 12825 12825 12825 13092 13092 13370 13661 13661 13965 13965 13965 14282 14282 14282 14282 14282 14614 14614 14614 14962 14962 14962 14962 15327 15327 15327 15327 15327 15327 15327 14962 14962 14962 14962 14962 14962 14962 14962 14962 14962 15327 14962 14962 14962 14962 15327 15327 15327 15327 15327 15327 15327 15327 15327 15327 15327 15327 15710 15327 15327 15327 15327 14962 14962 14962 14962 15327 15327 15710 15327 14962 13965 13661 13661 13370 13370 13370 13370 13370 13661 13965 13965 14282 14614 14614 14614 14614 14282 14282 13965 13965 13965 13661 13661 13661 13370 13370 13092 13092 13092 13092 13092 13092 13092 13092 13092 13092 13092 13092 13092 13092 13092 13092 13370 13370 13370 13370 13370 13661 13661 13965 13965 13965 13965 13661 13661 13661
    0 0 0 0 0 0 0 0 0 0 0 0 0 0 0 0 0 0 0 0 0 0 0 0 0 0 0 0 0 0 0 0 0 0 0 8268 8268 8268 8268 8268 8268 8268 8268 8268 8268 8268 8268 8268 8268 8268 8268 8268 8268 8268 8161 0 0 0 0 0 0 0 0 0 0 0 0 0 0 0 0 0 0 0 0 0 0 0 8161 8161 8161 8161 8161 8161 8161 8161 8161 8056 8056 8161 8379 8379 8379 8268 8268 8268 8268 8379 8379 8492 8608 8728 8851 8851 8728 0 0 0 0 0 0 0 0 0 0 0 0 0 0 0 0 0 0 0 0 0 0 0 0 0 0 0 0 0 0 0 0 0 0 0 0 0 0 0 0 0 0 0 0 0 0 0 0 11025 11221 11221 11221 11221 11221 11221 11221 11221 11221 11221 11221 11221 11221 11221 11221 11221 11426 11426 11426 11426 11426 11426 11426 11426 11426 11426 11426 11426 11426 11426 11637 11637 11637 11637 11637 11857 11857 11857 11857 11857 11857 11857 11857 0 0 0 0 0 0 0 0 0 0 0 0 0 13092 13092 13370 13092 13092 13092 13092 13092 13092 13370 13370 13370 13370 13370 13370 13092 13092 12825 12825 12825 12825 12825 13092 13092 13092 13092 13092 13092 13092 13092 13092 13092 13092 13092 13092 13092 13092 13965 13965 13965 13965 13965 13965 13965 13965 13965 13661 13370 13370 13370 13092 13092 13092 13092 13092 13092 13092 13092 13092 13092 12825 13092 13092 13092 13092 13370 0 0 0 0 0 0 0 0 0 0 0 0 0 0 12322 12322 12322 12322 12322 12322 12085 12085 11857 11637 11637 11637 11637 11637 11637 11426 11025 11025 11025 10835 10835 10835 10835 10651 10835 10835 11025 11221 11221 11221 11221 11221 11221 11221 11221 11221 11221 11221 11221 11221 11221 11426 11426 11637 11637 11857 12085 12322 12568 12322 12322 12322 12568 12568 12825 12825 13092 12825 12825 12825 12568 12568 12568 12568 12568 12568 12568 12568 12568 12568 12568 12568 12825 12825 12825 12825 12825 12825 12825 13092 13092 13092 13092 13092 13092 13092 13092 13092 13092 13092 13092 12825 12825 12825 12825 12825 12825 13092 13092 13370 13370 13661 13661 13965 13965 13965 14282 14282 14282 14282 14282 14282 14282 14614 14614 14962 14962 14962 14962 15327 15327 15327 15327 15327 14962 14962 14962 14962 14962 14962 14962 14962 14962 14962 14962 15327 15327 15327 15327 15327 15327 15327 15327 15327 15327 15327 15327 14962 14962 15327 15327 15327 15710 15327 15327 15327 15327 14962 14962 14962 15327 15710 15710 15710 15327 14962 14282 13965 13661 13661 13661 13661 13661 13661 13661 13965 14282 14614 14614 14614 14614 14614 14282 14282 13965 13965 13965 13661 13661 13661 13370 13370 13370 13092 13092 13092 13092 13092 13092 13092 13092 13092 13092 13092 13092 13092 13092 13092 13092 13092 13370 13370 13370 13370 13661 13661 13661 13661 13661 13661 13661 13370
    0 0 0 0 0 0 0 0 0 0 0 0 0 0 0 0 0 0 0 0 0 0 0 0 0 0 0 0 0 0 0 0 0 0 0 8268 8268 8268 8268 8268 8268 8268 8268 8268 8268 8268 8268 8268 8161 8161 8161 8161 8161 8161 8161 8056 0 0 0 0 0 0 0 0 0 0 0 0 0 0 0 0 0 0 0 0 0 8056 8161 8161 8161 8161 8161 8161 8161 8161 8161 8056 8056 8161 8268 8268 8268 8268 8268 8268 8268 8268 8379 8379 8492 8728 8851 8851 8728 0 0 0 0 0 0 0 0 0 0 0 0 0 0 0 0 0 0 0 0 0 0 0 0 0 0 0 0 0 0 0 0 0 0 0 0 0 0 0 0 0 0 0 0 0 0 0 0 11025 11025 11025 11025 11221 11221 11221 11221 11221 11221 11221 11221 11221 11221 11221 11221 11221 11221 11426 11426 11426 11426 11426 11426 11426 11426 11426 11426 11426 11426 11426 11426 11637 11637 11637 11637 11637 11637 11637 11857 11637 11637 11637 11637 0 0 0 0 0 0 0 0 0 0 0 0 0 13092 13092 13370 13370 13370 13370 13370 13370 13370 13370 13370 13370 13370 13370 13370 13092 13092 13092 12825 12825 12825 12825 13092 13092 13092 13370 13370 13370 13092 13092 13092 13092 13092 12825 12825 12825 12825 13965 13965 13965 13965 13965 13965 13965 13965 13965 13661 13661 13370 13370 13370 13092 13092 13092 13092 12825 12825 12825 12825 12825 12825 12825 12825 12825 12825 12825 0 0 0 0 0 0 0 0 0 0 0 0 0 0 12322 12322 12322 12322 12322 12322 12085 12085 11857 11637 11637 11637 11637 11637 11637 11221 11025 11025 11025 10835 10835 10835 10835 10651 10835 10835 11025 11221 11221 11221 11221 11221 11221 11221 11221 11221 11221 11221 11221 11221 11221 11221 11426 11426 11637 11857 12085 12322 12568 12322 12322 12322 12568 12568 12825 12825 13092 12825 12825 12825 12825 12825 12568 12568 12568 12568 12568 12568 12568 12568 12568 12568 12825 12825 12825 12825 12825 13092 13092 13092 13092 13092 13092 13092 13092 13092 13092 13092 13092 13092 13092 12825 12825 12825 12825 12825 12825 13092 13092 13370 13370 13661 13661 13965 13965 13965 14282 14282 14282 14282 14282 14282 14282 14282 14614 14614 14962 14962 14962 14962 15327 15327 14962 14962 14962 14962 14962 14962 14962 14962 14614 14962 14962 14962 15327 15327 15327 15327 15327 15327 15327 15327 15327 15327 15327 15327 14962 14962 14962 14962 14962 14962 15327 15327 15327 15327 15327 14962 14962 15327 15710 15710 15710 15710 15327 14962 14282 13965 13965 13661 13661 13661 13661 13661 13965 14282 14282 14614 14614 14614 14614 14614 14614 14282 14282 13965 13965 13661 13661 13661 13370 13370 13370 13092 13092 13092 13092 13092 13092 13092 13092 13092 13092 13092 13092 13092 13092 13092 13092 13370 13370 13370 13370 13370 13370 13370 13370 13370 13370 13370 13370 13370
    0 0 0 0 0 0 0 0 0 0 0 0 0 0 0 0 0 0 0 0 0 0 0 0 0 0 0 0 0 0 0 0 0 0 0 8268 8268 8268 8268 8268 8161 8161 8161 8161 8161 8161 8161 8161 8161 8161 8161 8161 8161 8161 8161 8056 0 0 0 0 0 0 0 0 0 0 0 0 0 0 0 0 0 0 0 0 8056 8056 8161 8161 8161 8161 8161 8161 8161 8161 8161 8056 8056 8161 8268 8268 8268 8268 8268 8268 8268 8268 8268 8379 8379 8728 8851 8851 0 0 0 0 0 0 0 0 0 0 0 0 0 0 0 0 0 0 0 0 0 0 0 0 0 0 0 0 0 0 0 0 0 0 0 0 0 0 0 0 0 0 0 0 0 0 0 0 0 11025 11025 11025 11025 11221 11221 11221 11221 11221 11221 11221 11221 11221 11221 11221 11221 11221 11221 11221 11221 11426 11426 11426 11426 11426 11426 11426 11426 11426 11426 11426 11426 11637 11637 11637 11637 11637 11637 11637 11637 11637 11637 11637 11637 0 0 0 0 0 0 0 0 0 0 0 0 0 13092 13092 13370 13370 13370 13370 13370 13370 13370 13370 13370 13370 13370 13370 13370 13092 13092 13092 13092 12825 13092 13092 13092 13092 13370 13370 13370 13370 13370 13092 13092 13092 13092 13092 13092 13092 13092 13965 13965 13965 13965 13965 13965 13965 13965 13965 13661 13661 13661 13370 13370 13370 13092 13092 12825 12825 12825 12825 12825 12825 12825 12825 12825 12825 12825 12825 0 0 0 0 0 0 0 0 0 0 0 0 0 0 12322 12322 12322 12322 12322 12322 12322 12085 11857 11637 11637 11637 11637 11637 11637 11221 11025 11025 10835 10835 10835 10835 10835 10651 10835 10835 11025 11025 11221 11221 11221 11221 11221 11221 11221 11221 11221 11221 11221 11221 11221 11221 11221 11426 11637 11857 12085 12322 12322 12322 12322 12322 12568 12568 12825 12825 13092 12825 12825 12825 12825 12825 12568 12568 12568 12568 12568 12568 12568 12568 12568 12568 12825 12825 12825 13092 13092 13092 13092 13092 13092 13092 13092 13370 13370 13370 13370 13370 13092 13092 13092 13092 12825 12825 12825 12825 13092 13092 13370 13370 13370 13661 13661 13965 13965 13965 13965 13965 13965 13965 14282 14282 14282 14282 14282 14614 14614 14962 14962 14962 14962 14962 14962 14962 14962 14962 14962 14962 14614 14614 14962 14962 14962 14962 15327 15327 15327 15327 15327 15327 15327 15327 15327 15327 15327 15327 14962 14962 14962 14614 14614 14614 14962 14614 14614 14614 14614 14962 15710 15710 15710 15710 15710 15327 15327 14962 14614 14282 13965 13965 13965 13965 13965 13965 14282 14282 14614 14614 14614 14614 14614 14614 14614 14282 14282 14282 13965 13965 13661 13661 13370 13370 13370 13092 13092 13092 13092 13092 13092 13092 13092 13092 13092 13092 13092 13092 13092 13092 13370 13370 13370 13370 13370 13370 13370 13370 13370 13370 13370 13370 13092 13092
    0 0 0 0 0 0 0 0 0 0 0 0 0 0 0 0 0 0 0 0 0 0 0 0 0 0 0 0 0 0 0 0 0 0 0 8268 8268 8268 8268 8268 8161 8161 8161 8161 8161 8161 8161 8161 8161 8161 8161 8161 8161 8161 8161 8056 0 0 0 0 0 0 0 0 0 0 0 0 0 0 0 0 0 0 0 8056 8056 8056 8161 8161 8161 8161 8161 8161 8161 8161 8056 8056 8056 8161 8268 8268 8268 8268 8161 8161 8161 8161 8161 8161 8161 0 0 0 0 0 0 0 0 0 0 0 0 0 0 0 0 0 0 0 0 0 0 0 0 0 0 0 0 0 0 0 0 0 0 0 0 0 0 0 0 0 0 0 0 0 0 0 0 0 0 0 10835 11025 11025 11025 11025 11221 11221 11221 11221 11221 11221 11221 11221 11221 11221 11221 11221 11221 11221 11221 11221 11221 11221 11221 11221 11221 11221 11221 11426 11426 11426 11426 11426 11426 11426 11426 11426 11426 11426 11637 11637 11637 11637 11637 11637 0 0 0 0 0 0 0 0 0 0 0 0 0 13092 13092 13370 13370 13370 13370 13370 13370 13370 13370 13370 13370 13370 13370 13370 13370 13092 13092 13092 13092 13092 13092 13092 13370 13370 13370 13370 13370 13370 13092 13092 13092 13092 13092 13092 13092 13370 13965 13965 13965 13965 13965 13965 13965 13965 13965 13965 13661 13661 13661 13370 13370 13092 12825 12825 12568 12568 12568 12568 12568 12825 12825 12825 12825 12825 12825 0 0 0 0 0 0 0 0 0 0 0 0 0 0 12322 12322 12322 12322 12322 12322 12322 12085 12085 11637 11637 11426 11426 11426 11637 11025 11025 10835 10835 10835 10835 10835 10835 10651 10651 10835 11025 11025 11221 11221 11221 11221 11221 11221 11221 11221 11221 11221 11221 11221 11221 11221 11221 11426 11637 11857 12085 12322 12322 12322 12322 12322 12568 12568 12825 12825 12825 12825 12825 12825 12825 12825 12568 12568 12568 12568 12568 12322 12322 12322 12568 12568 12825 12825 12825 13092 13092 13092 13092 13092 13092 13370 13370 13370 13370 13370 13370 13370 13092 13092 13092 13092 12825 12825 12825 13092 13092 13092 13370 13370 13661 13661 13661 13965 13965 13965 13965 13965 13965 13965 13965 14282 14282 14282 14282 14614 14614 14962 14962 14962 14962 14962 14962 14962 14962 14962 14962 14614 14962 14962 14962 14962 14962 15327 15327 15327 15327 15327 15327 15327 15327 15327 15327 15327 15327 15327 14962 14962 14614 14614 14614 14614 14282 14282 14282 14282 14282 14614 14614 14962 15327 15710 15710 15327 15327 14962 14614 14282 13965 13965 13965 13965 13965 14282 14282 14614 14614 14614 14614 14614 14614 14614 14614 14282 14282 14282 13965 13965 13661 13661 13370 13370 13370 13370 13092 13092 13092 13092 13092 13092 13092 13092 13092 13092 13092 13092 13092 13370 13370 13370 13370 13370 13370 13370 13370 13370 13370 13092 13092 13092 13092 13092
    0 0 0 0 0 0 0 0 0 0 0 0 0 0 0 0 0 0 0 0 0 0 0 0 0 0 0 0 0 0 0 0 0 0 0 8268 8268 8268 8161 8161 8161 8161 8056 8056 8056 8056 8056 8161 8161 8056 8056 8056 8161 8161 8161 8056 0 0 0 0 0 0 0 0 0 0 0 0 0 0 0 0 0 0 8056 8056 8056 8056 8161 8161 8161 8161 8161 8161 8161 8056 8056 8056 8056 8056 8161 8161 8161 8161 8161 8161 8161 8161 8161 8161 8161 8056 0 0 0 0 0 0 0 0 0 0 0 0 0 0 0 0 0 0 0 0 0 0 0 0 0 0 0 0 0 0 0 0 0 0 0 0 0 0 0 0 0 0 0 0 0 0 0 0 0 10835 10835 11025 11025 11025 11025 11221 11221 11221 11221 11221 11221 11221 11221 11221 11221 11221 11221 11221 11221 11221 11221 11221 11221 11221 11221 11221 11221 11221 11221 11426 11426 11426 11426 11426 11426 11426 11426 11426 11426 11426 11426 11637 11637 11637 0 0 0 0 0 0 0 0 0 0 0 0 0 0 13092 13092 13370 13370 13370 13370 13370 13370 13370 13370 13370 13370 13370 13370 13370 13370 13092 13092 13092 13092 13092 13092 13370 13370 13370 13370 13370 13370 13370 13370 13092 13092 13092 13092 13092 13092 13370 13661 12825 12825 13370 13661 13965 13965 13965 13965 13965 13965 13965 13661 13661 13370 12825 12568 12568 12568 12322 12322 12568 12568 12568 12568 12568 12825 0 0 0 0 0 0 0 0 0 0 0 0 0 0 0 0 12322 12322 12322 12322 12322 12322 12322 12322 12322 12085 11857 11857 11857 11857 11857 11426 11025 10835 10835 10835 10835 10835 10651 10651 10651 10835 10835 11025 11221 11221 11221 11221 11221 11221 11221 11221 11221 11221 11025 11221 11221 11221 11221 11426 11637 11857 12085 12322 12322 12322 12322 12322 12568 12568 12825 12825 12825 12825 12825 12825 12825 12568 12568 12568 12568 12568 12568 12322 12322 12322 12322 12568 12568 12825 13092 13092 13092 13092 13092 13092 13370 13370 13370 13370 13370 13370 13370 13370 13370 13092 13092 13092 13092 13092 13092 13092 13092 13370 13370 13370 13661 13661 13661 13965 13965 13965 13965 13965 13965 13965 13965 13965 14282 14282 14282 14282 14614 14614 14614 14614 14962 14962 14962 14962 14962 14962 14614 14962 14962 14962 14962 14962 14962 15327 15327 15327 15327 15327 15327 15327 15327 15327 15327 15327 15327 15327 14962 14614 14614 14614 14282 14282 14282 14282 14282 14282 14282 14282 14614 14962 14962 15327 15327 14962 14962 14614 14282 14282 14282 13965 13965 14282 14282 14282 14614 14614 14614 14614 14614 14614 14614 14614 14614 14282 14282 14282 13965 13965 13661 13661 13370 13370 13370 13370 13370 13370 13370 13092 13092 13092 13092 13092 13092 13092 13092 13092 13092 13370 13370 13370 13370 13370 13370 13370 13370 13370 13370 13092 13092 13092 13092 13092</data></DepthMat>
</opencv_storage>
